# This PCD file was generated using the MATLAB® pcwrite function
# from Computer Vision Toolbox®.
# .PCD v.7 - Point Cloud Data file format
VERSION .7
FIELDS x y z
SIZE 8 8 8
TYPE F F F
COUNT 1 1 1
WIDTH 856
HEIGHT 1
VIEWPOINT 0 0 0 1 0 0 0
POINTS 856
DATA ascii
-0.488140546016461 0.703134174090246 0.117300078055910
-0.488140546016461 0.703134174090246 0.156153201774975
-0.488140546016461 0.703134174090246 0.195006325494040
-0.488140546016461 0.703134174090246 0.233859449213105
-0.488140546016461 0.703134174090246 0.272712572932169
-0.488140546016461 0.703134174090246 0.311565696651234
-0.488140546016461 0.703134174090246 0.350418820370299
-0.488140546016461 0.703134174090246 0.389271944089364
-0.488140546016461 0.703134174090246 0.428125067808428
-0.488140546016461 0.703134174090246 0.466978191527493
-0.488140546016461 0.703134174090246 0.505831315246558
-0.488140546016461 0.703134174090246 0.544684438965623
-0.488140546016461 0.703134174090246 0.583537562684687
-0.488140546016461 0.703134174090246 0.622390686403752
-0.488140546016461 0.703134174090246 0.661243810122817
-0.488140546016461 0.703134174090246 0.700096933841882
-0.488140546016461 0.703134174090246 0.738950057560946
-0.488140546016461 0.703134174090246 0.777803181280011
-0.488140546016461 0.703134174090246 0.816656304999076
-0.488140546016461 0.703134174090246 0.855509428718141
-0.488140546016461 0.703134174090246 0.894362552437205
-0.488140546016461 0.703134174090246 0.933215676156270
-0.488140546016461 0.742055401375643 0.000740706898716
-0.488140546016461 0.742055401375643 0.039593830617781
-0.488140546016461 0.742055401375643 0.078446954336845
-0.488140546016461 0.742055401375643 0.117300078055910
-0.488140546016461 0.742055401375643 0.156153201774975
-0.488140546016461 0.742055401375643 0.195006325494040
-0.488140546016461 0.742055401375643 0.233859449213105
-0.488140546016461 0.742055401375643 0.272712572932169
-0.488140546016461 0.742055401375643 0.311565696651234
-0.488140546016461 0.742055401375643 0.350418820370299
-0.488140546016461 0.742055401375643 0.389271944089364
-0.488140546016461 0.742055401375643 0.428125067808428
-0.488140546016461 0.742055401375643 0.466978191527493
-0.488140546016461 0.742055401375643 0.505831315246558
-0.488140546016461 0.742055401375643 0.544684438965623
-0.488140546016461 0.742055401375643 0.583537562684687
-0.488140546016461 0.742055401375643 0.622390686403752
-0.488140546016461 0.742055401375643 0.661243810122817
-0.488140546016461 0.742055401375643 0.700096933841882
-0.488140546016461 0.742055401375643 0.738950057560946
-0.488140546016461 0.742055401375643 0.777803181280011
-0.488140546016461 0.742055401375643 0.816656304999076
-0.488140546016461 0.742055401375643 0.855509428718141
-0.488140546016461 0.742055401375643 0.894362552437205
-0.488140546016461 0.742055401375643 0.933215676156270
-0.488140546016461 0.780976628661041 0.000740706898716
-0.488140546016461 0.780976628661041 0.039593830617781
-0.488140546016461 0.780976628661041 0.078446954336845
-0.488140546016461 0.780976628661041 0.117300078055910
-0.488140546016461 0.780976628661041 0.156153201774975
-0.488140546016461 0.780976628661041 0.195006325494040
-0.488140546016461 0.780976628661041 0.233859449213105
-0.488140546016461 0.780976628661041 0.272712572932169
-0.488140546016461 0.780976628661041 0.311565696651234
-0.488140546016461 0.780976628661041 0.350418820370299
-0.488140546016461 0.780976628661041 0.389271944089364
-0.488140546016461 0.780976628661041 0.428125067808428
-0.488140546016461 0.780976628661041 0.466978191527493
-0.488140546016461 0.780976628661041 0.505831315246558
-0.488140546016461 0.780976628661041 0.544684438965623
-0.488140546016461 0.780976628661041 0.583537562684687
-0.488140546016461 0.780976628661041 0.622390686403752
-0.488140546016461 0.780976628661041 0.661243810122817
-0.488140546016461 0.780976628661041 0.700096933841882
-0.488140546016461 0.780976628661041 0.738950057560946
-0.488140546016461 0.780976628661041 0.777803181280011
-0.488140546016461 0.780976628661041 0.816656304999076
-0.488140546016461 0.780976628661041 0.855509428718141
-0.488140546016461 0.780976628661041 0.894362552437205
-0.488140546016461 0.780976628661041 0.933215676156270
-0.488140546016461 0.819897855946438 0.000740706898716
-0.488140546016461 0.819897855946438 0.039593830617781
-0.488140546016461 0.819897855946438 0.078446954336845
-0.488140546016461 0.819897855946438 0.117300078055910
-0.488140546016461 0.819897855946438 0.156153201774975
-0.488140546016461 0.819897855946438 0.195006325494040
-0.488140546016461 0.819897855946438 0.233859449213105
-0.488140546016461 0.819897855946438 0.272712572932169
-0.488140546016461 0.819897855946438 0.311565696651234
-0.488140546016461 0.819897855946438 0.350418820370299
-0.488140546016461 0.819897855946438 0.389271944089364
-0.488140546016461 0.819897855946438 0.428125067808428
-0.488140546016461 0.819897855946438 0.466978191527493
-0.488140546016461 0.819897855946438 0.505831315246558
-0.488140546016461 0.819897855946438 0.544684438965623
-0.488140546016461 0.819897855946438 0.583537562684687
-0.488140546016461 0.819897855946438 0.622390686403752
-0.488140546016461 0.819897855946438 0.661243810122817
-0.488140546016461 0.819897855946438 0.700096933841882
-0.488140546016461 0.819897855946438 0.738950057560946
-0.488140546016461 0.819897855946438 0.777803181280011
-0.488140546016461 0.819897855946438 0.816656304999076
-0.488140546016461 0.819897855946438 0.855509428718141
-0.488140546016461 0.819897855946438 0.894362552437205
-0.488140546016461 0.819897855946438 0.933215676156270
-0.488140546016461 0.858819083231836 0.000740706898716
-0.488140546016461 0.858819083231836 0.039593830617781
-0.488140546016461 0.858819083231836 0.078446954336845
-0.488140546016461 0.858819083231836 0.117300078055910
-0.488140546016461 0.858819083231836 0.156153201774975
-0.488140546016461 0.858819083231836 0.195006325494040
-0.488140546016461 0.858819083231836 0.233859449213105
-0.488140546016461 0.858819083231836 0.272712572932169
-0.488140546016461 0.858819083231836 0.311565696651234
-0.488140546016461 0.858819083231836 0.350418820370299
-0.488140546016461 0.858819083231836 0.389271944089364
-0.488140546016461 0.858819083231836 0.428125067808428
-0.488140546016461 0.858819083231836 0.466978191527493
-0.488140546016461 0.858819083231836 0.505831315246558
-0.488140546016461 0.858819083231836 0.544684438965623
-0.488140546016461 0.858819083231836 0.583537562684687
-0.488140546016461 0.858819083231836 0.622390686403752
-0.488140546016461 0.858819083231836 0.661243810122817
-0.488140546016461 0.858819083231836 0.700096933841882
-0.488140546016461 0.858819083231836 0.738950057560946
-0.488140546016461 0.858819083231836 0.777803181280011
-0.488140546016461 0.858819083231836 0.816656304999076
-0.488140546016461 0.858819083231836 0.855509428718141
-0.488140546016461 0.858819083231836 0.894362552437205
-0.488140546016461 0.858819083231836 0.933215676156270
-0.488140546016461 0.897740310517233 0.000740706898716
-0.488140546016461 0.897740310517233 0.039593830617781
-0.488140546016461 0.897740310517233 0.078446954336845
-0.488140546016461 0.897740310517233 0.117300078055910
-0.488140546016461 0.897740310517233 0.156153201774975
-0.488140546016461 0.897740310517233 0.195006325494040
-0.488140546016461 0.897740310517233 0.233859449213105
-0.488140546016461 0.897740310517233 0.272712572932169
-0.488140546016461 0.897740310517233 0.311565696651234
-0.488140546016461 0.897740310517233 0.350418820370299
-0.488140546016461 0.897740310517233 0.389271944089364
-0.488140546016461 0.897740310517233 0.428125067808428
-0.488140546016461 0.897740310517233 0.466978191527493
-0.488140546016461 0.897740310517233 0.505831315246558
-0.488140546016461 0.897740310517233 0.544684438965623
-0.488140546016461 0.897740310517233 0.583537562684687
-0.488140546016461 0.897740310517233 0.622390686403752
-0.488140546016461 0.897740310517233 0.661243810122817
-0.488140546016461 0.897740310517233 0.700096933841882
-0.488140546016461 0.897740310517233 0.738950057560946
-0.488140546016461 0.897740310517233 0.777803181280011
-0.488140546016461 0.897740310517233 0.816656304999076
-0.488140546016461 0.897740310517233 0.855509428718141
-0.488140546016461 0.897740310517233 0.894362552437205
-0.488140546016461 0.897740310517233 0.933215676156270
-0.488140546016461 0.936661537802630 0.000740706898716
-0.488140546016461 0.936661537802630 0.039593830617781
-0.488140546016461 0.936661537802630 0.078446954336845
-0.488140546016461 0.936661537802630 0.117300078055910
-0.488140546016461 0.936661537802630 0.156153201774975
-0.488140546016461 0.936661537802630 0.195006325494040
-0.488140546016461 0.936661537802630 0.233859449213105
-0.488140546016461 0.936661537802630 0.272712572932169
-0.488140546016461 0.936661537802630 0.311565696651234
-0.488140546016461 0.936661537802630 0.350418820370299
-0.488140546016461 0.936661537802630 0.389271944089364
-0.488140546016461 0.936661537802630 0.428125067808428
-0.488140546016461 0.936661537802630 0.466978191527493
-0.488140546016461 0.936661537802630 0.505831315246558
-0.488140546016461 0.936661537802630 0.544684438965623
-0.488140546016461 0.936661537802630 0.583537562684687
-0.488140546016461 0.936661537802630 0.622390686403752
-0.488140546016461 0.936661537802630 0.661243810122817
-0.488140546016461 0.936661537802630 0.700096933841882
-0.488140546016461 0.936661537802630 0.738950057560946
-0.488140546016461 0.936661537802630 0.777803181280011
-0.488140546016461 0.936661537802630 0.816656304999076
-0.488140546016461 0.936661537802630 0.855509428718141
-0.488140546016461 0.936661537802630 0.894362552437205
-0.488140546016461 0.936661537802630 0.933215676156270
-0.488140546016461 0.975582765088028 0.000740706898716
-0.488140546016461 0.975582765088028 0.039593830617781
-0.488140546016461 0.975582765088028 0.078446954336845
-0.488140546016461 0.975582765088028 0.117300078055910
-0.488140546016461 0.975582765088028 0.156153201774975
-0.488140546016461 0.975582765088028 0.195006325494040
-0.488140546016461 0.975582765088028 0.233859449213105
-0.488140546016461 0.975582765088028 0.272712572932169
-0.488140546016461 0.975582765088028 0.311565696651234
-0.488140546016461 0.975582765088028 0.350418820370299
-0.488140546016461 0.975582765088028 0.389271944089364
-0.488140546016461 0.975582765088028 0.428125067808428
-0.488140546016461 0.975582765088028 0.466978191527493
-0.488140546016461 0.975582765088028 0.505831315246558
-0.488140546016461 0.975582765088028 0.544684438965623
-0.488140546016461 0.975582765088028 0.583537562684687
-0.488140546016461 0.975582765088028 0.622390686403752
-0.488140546016461 0.975582765088028 0.661243810122817
-0.488140546016461 0.975582765088028 0.700096933841882
-0.488140546016461 0.975582765088028 0.738950057560946
-0.488140546016461 0.975582765088028 0.777803181280011
-0.488140546016461 0.975582765088028 0.816656304999076
-0.488140546016461 0.975582765088028 0.855509428718141
-0.488140546016461 0.975582765088028 0.894362552437205
-0.488140546016461 0.975582765088028 0.933215676156270
-0.488140546016461 1.014503992373425 0.000740706898716
-0.488140546016461 1.014503992373425 0.039593830617781
-0.488140546016461 1.014503992373425 0.078446954336845
-0.488140546016461 1.014503992373425 0.117300078055910
-0.488140546016461 1.014503992373425 0.156153201774975
-0.488140546016461 1.014503992373425 0.195006325494040
-0.488140546016461 1.014503992373425 0.233859449213105
-0.488140546016461 1.014503992373425 0.272712572932169
-0.488140546016461 1.014503992373425 0.311565696651234
-0.488140546016461 1.014503992373425 0.350418820370299
-0.488140546016461 1.014503992373425 0.389271944089364
-0.488140546016461 1.014503992373425 0.428125067808428
-0.488140546016461 1.014503992373425 0.466978191527493
-0.488140546016461 1.014503992373425 0.505831315246558
-0.488140546016461 1.014503992373425 0.544684438965623
-0.488140546016461 1.014503992373425 0.583537562684687
-0.488140546016461 1.014503992373425 0.622390686403752
-0.488140546016461 1.014503992373425 0.661243810122817
-0.488140546016461 1.014503992373425 0.700096933841882
-0.488140546016461 1.014503992373425 0.738950057560946
-0.488140546016461 1.014503992373425 0.777803181280011
-0.488140546016461 1.014503992373425 0.816656304999076
-0.488140546016461 1.014503992373425 0.855509428718141
-0.488140546016461 1.014503992373425 0.894362552437205
-0.488140546016461 1.014503992373425 0.933215676156270
-0.455095573376503 -1.156654018149442 0.003061619474504
-0.455095573376503 -1.156654018149442 0.042735895258809
-0.455095573376503 -1.156654018149442 0.082410171043114
-0.455095573376503 -1.156654018149442 0.122084446827419
-0.455095573376503 -1.156654018149442 0.161758722611724
-0.455095573376503 -1.156654018149442 0.201432998396029
-0.455095573376503 -1.156654018149442 0.241107274180333
-0.455095573376503 -1.156654018149442 0.280781549964638
-0.455095573376503 -1.156654018149442 0.320455825748943
-0.455095573376503 -1.156654018149442 0.360130101533248
-0.455095573376503 -1.156654018149442 0.399804377317553
-0.455095573376503 -1.156654018149442 0.439478653101858
-0.455095573376503 -1.156654018149442 0.479152928886163
-0.455095573376503 -1.156654018149442 0.518827204670468
-0.455095573376503 -1.156654018149442 0.558501480454773
-0.455095573376503 -1.156654018149442 0.598175756239078
-0.455095573376503 -1.156654018149442 0.637850032023382
-0.455095573376503 -1.156654018149442 0.677524307807687
-0.455095573376503 -1.156654018149442 0.717198583591992
-0.455095573376503 -1.156654018149442 0.756872859376297
-0.455095573376503 -1.156654018149442 0.796547135160602
-0.455095573376503 -1.156654018149442 0.836221410944907
-0.455095573376503 -1.117380635550047 0.003061619474504
-0.455095573376503 -1.117380635550047 0.042735895258809
-0.455095573376503 -1.117380635550047 0.082410171043114
-0.455095573376503 -1.117380635550047 0.122084446827419
-0.455095573376503 -1.117380635550047 0.161758722611724
-0.455095573376503 -1.117380635550047 0.201432998396029
-0.455095573376503 -1.117380635550047 0.241107274180333
-0.455095573376503 -1.117380635550047 0.280781549964638
-0.455095573376503 -1.117380635550047 0.320455825748943
-0.455095573376503 -1.117380635550047 0.360130101533248
-0.455095573376503 -1.117380635550047 0.399804377317553
-0.455095573376503 -1.117380635550047 0.439478653101858
-0.455095573376503 -1.117380635550047 0.479152928886163
-0.455095573376503 -1.117380635550047 0.518827204670468
-0.455095573376503 -1.117380635550047 0.558501480454773
-0.455095573376503 -1.117380635550047 0.598175756239078
-0.455095573376503 -1.117380635550047 0.637850032023382
-0.455095573376503 -1.117380635550047 0.677524307807687
-0.455095573376503 -1.117380635550047 0.717198583591992
-0.455095573376503 -1.117380635550047 0.756872859376297
-0.455095573376503 -1.117380635550047 0.796547135160602
-0.455095573376503 -1.117380635550047 0.836221410944907
-0.455095573376503 -1.078107252950651 0.003061619474504
-0.455095573376503 -1.078107252950651 0.042735895258809
-0.455095573376503 -1.078107252950651 0.082410171043114
-0.455095573376503 -1.078107252950651 0.122084446827419
-0.455095573376503 -1.078107252950651 0.161758722611724
-0.455095573376503 -1.078107252950651 0.201432998396029
-0.455095573376503 -1.078107252950651 0.241107274180333
-0.455095573376503 -1.078107252950651 0.280781549964638
-0.455095573376503 -1.078107252950651 0.320455825748943
-0.455095573376503 -1.078107252950651 0.360130101533248
-0.455095573376503 -1.078107252950651 0.399804377317553
-0.455095573376503 -1.078107252950651 0.439478653101858
-0.455095573376503 -1.078107252950651 0.479152928886163
-0.455095573376503 -1.078107252950651 0.518827204670468
-0.455095573376503 -1.078107252950651 0.558501480454773
-0.455095573376503 -1.078107252950651 0.598175756239078
-0.455095573376503 -1.078107252950651 0.637850032023382
-0.455095573376503 -1.078107252950651 0.677524307807687
-0.455095573376503 -1.078107252950651 0.717198583591992
-0.455095573376503 -1.078107252950651 0.756872859376297
-0.455095573376503 -1.078107252950651 0.796547135160602
-0.455095573376503 -1.078107252950651 0.836221410944907
-0.455095573376503 -1.038833870351256 0.003061619474504
-0.455095573376503 -1.038833870351256 0.042735895258809
-0.455095573376503 -1.038833870351256 0.082410171043114
-0.455095573376503 -1.038833870351256 0.122084446827419
-0.455095573376503 -1.038833870351256 0.161758722611724
-0.455095573376503 -1.038833870351256 0.201432998396029
-0.455095573376503 -1.038833870351256 0.241107274180333
-0.455095573376503 -1.038833870351256 0.280781549964638
-0.455095573376503 -1.038833870351256 0.320455825748943
-0.455095573376503 -1.038833870351256 0.360130101533248
-0.455095573376503 -1.038833870351256 0.399804377317553
-0.455095573376503 -1.038833870351256 0.439478653101858
-0.455095573376503 -1.038833870351256 0.479152928886163
-0.455095573376503 -1.038833870351256 0.518827204670468
-0.455095573376503 -1.038833870351256 0.558501480454773
-0.455095573376503 -1.038833870351256 0.598175756239078
-0.455095573376503 -1.038833870351256 0.637850032023382
-0.455095573376503 -1.038833870351256 0.677524307807687
-0.455095573376503 -1.038833870351256 0.717198583591992
-0.455095573376503 -1.038833870351256 0.756872859376297
-0.455095573376503 -1.038833870351256 0.796547135160602
-0.455095573376503 -1.038833870351256 0.836221410944907
-0.455095573376503 -0.999560487751861 0.003061619474504
-0.455095573376503 -0.999560487751861 0.042735895258809
-0.455095573376503 -0.999560487751861 0.082410171043114
-0.455095573376503 -0.999560487751861 0.122084446827419
-0.455095573376503 -0.999560487751861 0.161758722611724
-0.455095573376503 -0.999560487751861 0.201432998396029
-0.455095573376503 -0.999560487751861 0.241107274180333
-0.455095573376503 -0.999560487751861 0.280781549964638
-0.455095573376503 -0.999560487751861 0.320455825748943
-0.455095573376503 -0.999560487751861 0.360130101533248
-0.455095573376503 -0.999560487751861 0.399804377317553
-0.455095573376503 -0.999560487751861 0.439478653101858
-0.455095573376503 -0.999560487751861 0.479152928886163
-0.455095573376503 -0.999560487751861 0.518827204670468
-0.455095573376503 -0.999560487751861 0.558501480454773
-0.455095573376503 -0.999560487751861 0.598175756239078
-0.455095573376503 -0.999560487751861 0.637850032023382
-0.455095573376503 -0.999560487751861 0.677524307807687
-0.455095573376503 -0.999560487751861 0.717198583591992
-0.455095573376503 -0.999560487751861 0.756872859376297
-0.455095573376503 -0.999560487751861 0.796547135160602
-0.455095573376503 -0.999560487751861 0.836221410944907
-0.455095573376503 -0.960287105152465 0.003061619474504
-0.455095573376503 -0.960287105152465 0.042735895258809
-0.455095573376503 -0.960287105152465 0.082410171043114
-0.455095573376503 -0.960287105152465 0.122084446827419
-0.455095573376503 -0.960287105152465 0.161758722611724
-0.455095573376503 -0.960287105152465 0.201432998396029
-0.455095573376503 -0.960287105152465 0.241107274180333
-0.455095573376503 -0.960287105152465 0.280781549964638
-0.455095573376503 -0.960287105152465 0.320455825748943
-0.455095573376503 -0.960287105152465 0.360130101533248
-0.455095573376503 -0.960287105152465 0.399804377317553
-0.455095573376503 -0.960287105152465 0.439478653101858
-0.455095573376503 -0.960287105152465 0.479152928886163
-0.455095573376503 -0.960287105152465 0.518827204670468
-0.455095573376503 -0.960287105152465 0.558501480454773
-0.455095573376503 -0.960287105152465 0.598175756239078
-0.455095573376503 -0.960287105152465 0.637850032023382
-0.455095573376503 -0.960287105152465 0.677524307807687
-0.455095573376503 -0.960287105152465 0.717198583591992
-0.455095573376503 -0.960287105152465 0.756872859376297
-0.455095573376503 -0.960287105152465 0.796547135160602
-0.455095573376503 -0.960287105152465 0.836221410944907
-0.455095573376503 -0.921013722553070 0.003061619474504
-0.455095573376503 -0.921013722553070 0.042735895258809
-0.455095573376503 -0.921013722553070 0.082410171043114
-0.455095573376503 -0.921013722553070 0.122084446827419
-0.455095573376503 -0.921013722553070 0.161758722611724
-0.455095573376503 -0.921013722553070 0.201432998396029
-0.455095573376503 -0.921013722553070 0.241107274180333
-0.455095573376503 -0.921013722553070 0.280781549964638
-0.455095573376503 -0.921013722553070 0.320455825748943
-0.455095573376503 -0.921013722553070 0.360130101533248
-0.455095573376503 -0.921013722553070 0.399804377317553
-0.455095573376503 -0.921013722553070 0.439478653101858
-0.455095573376503 -0.921013722553070 0.479152928886163
-0.455095573376503 -0.921013722553070 0.518827204670468
-0.455095573376503 -0.921013722553070 0.558501480454773
-0.455095573376503 -0.921013722553070 0.598175756239078
-0.455095573376503 -0.921013722553070 0.637850032023382
-0.455095573376503 -0.921013722553070 0.677524307807687
-0.455095573376503 -0.921013722553070 0.717198583591992
-0.455095573376503 -0.921013722553070 0.756872859376297
-0.455095573376503 -0.921013722553070 0.796547135160602
-0.455095573376503 -0.921013722553070 0.836221410944907
-0.455095573376503 -0.881740339953675 0.003061619474504
-0.455095573376503 -0.881740339953675 0.042735895258809
-0.455095573376503 -0.881740339953675 0.082410171043114
-0.455095573376503 -0.881740339953675 0.122084446827419
-0.455095573376503 -0.881740339953675 0.161758722611724
-0.455095573376503 -0.881740339953675 0.201432998396029
-0.455095573376503 -0.881740339953675 0.241107274180333
-0.455095573376503 -0.881740339953675 0.280781549964638
-0.455095573376503 -0.881740339953675 0.320455825748943
-0.455095573376503 -0.881740339953675 0.360130101533248
-0.455095573376503 -0.881740339953675 0.399804377317553
-0.455095573376503 -0.881740339953675 0.439478653101858
-0.455095573376503 -0.881740339953675 0.479152928886163
-0.455095573376503 -0.881740339953675 0.518827204670468
-0.455095573376503 -0.881740339953675 0.558501480454773
-0.455095573376503 -0.881740339953675 0.598175756239078
-0.455095573376503 -0.881740339953675 0.637850032023382
-0.455095573376503 -0.881740339953675 0.677524307807687
-0.455095573376503 -0.881740339953675 0.717198583591992
-0.455095573376503 -0.881740339953675 0.756872859376297
-0.455095573376503 -0.881740339953675 0.796547135160602
-0.455095573376503 -0.881740339953675 0.836221410944907
-0.455095573376503 -0.842466957354279 0.003061619474504
-0.455095573376503 -0.842466957354279 0.042735895258809
-0.455095573376503 -0.842466957354279 0.082410171043114
-0.455095573376503 -0.842466957354279 0.122084446827419
-0.455095573376503 -0.842466957354279 0.161758722611724
-0.455095573376503 -0.842466957354279 0.201432998396029
-0.455095573376503 -0.842466957354279 0.241107274180333
-0.455095573376503 -0.842466957354279 0.280781549964638
-0.455095573376503 -0.842466957354279 0.320455825748943
-0.455095573376503 -0.842466957354279 0.360130101533248
-0.455095573376503 -0.842466957354279 0.399804377317553
-0.455095573376503 -0.842466957354279 0.439478653101858
-0.455095573376503 -0.842466957354279 0.479152928886163
-0.455095573376503 -0.842466957354279 0.518827204670468
-0.455095573376503 -0.842466957354279 0.558501480454773
-0.455095573376503 -0.842466957354279 0.598175756239078
-0.455095573376503 -0.842466957354279 0.637850032023382
-0.455095573376503 -0.842466957354279 0.677524307807687
-0.455095573376503 -0.842466957354279 0.717198583591992
-0.455095573376503 -0.842466957354279 0.756872859376297
-0.455095573376503 -0.842466957354279 0.796547135160602
-0.455095573376503 -0.842466957354279 0.836221410944907
-0.455095573376503 -0.803193574754884 0.003061619474504
-0.455095573376503 -0.803193574754884 0.042735895258809
-0.455095573376503 -0.803193574754884 0.082410171043114
-0.455095573376503 -0.803193574754884 0.122084446827419
-0.455095573376503 -0.803193574754884 0.161758722611724
-0.455095573376503 -0.803193574754884 0.201432998396029
-0.455095573376503 -0.803193574754884 0.241107274180333
-0.455095573376503 -0.803193574754884 0.280781549964638
-0.455095573376503 -0.803193574754884 0.320455825748943
-0.455095573376503 -0.803193574754884 0.360130101533248
-0.455095573376503 -0.803193574754884 0.399804377317553
-0.455095573376503 -0.803193574754884 0.439478653101858
-0.455095573376503 -0.803193574754884 0.479152928886163
-0.455095573376503 -0.803193574754884 0.518827204670468
-0.455095573376503 -0.803193574754884 0.558501480454773
-0.455095573376503 -0.803193574754884 0.598175756239078
-0.455095573376503 -0.803193574754884 0.637850032023382
-0.455095573376503 -0.803193574754884 0.677524307807687
-0.455095573376503 -0.803193574754884 0.717198583591992
-0.455095573376503 -0.803193574754884 0.756872859376297
-0.455095573376503 -0.803193574754884 0.796547135160602
-0.455095573376503 -0.803193574754884 0.836221410944907
-0.455095573376503 -0.763920192155489 0.003061619474504
-0.455095573376503 -0.763920192155489 0.042735895258809
-0.455095573376503 -0.763920192155489 0.082410171043114
-0.455095573376503 -0.763920192155489 0.122084446827419
-0.455095573376503 -0.763920192155489 0.161758722611724
-0.455095573376503 -0.763920192155489 0.201432998396029
-0.455095573376503 -0.763920192155489 0.241107274180333
-0.455095573376503 -0.763920192155489 0.280781549964638
-0.455095573376503 -0.763920192155489 0.320455825748943
-0.455095573376503 -0.763920192155489 0.360130101533248
-0.455095573376503 -0.763920192155489 0.399804377317553
-0.455095573376503 -0.763920192155489 0.439478653101858
-0.455095573376503 -0.763920192155489 0.479152928886163
-0.455095573376503 -0.763920192155489 0.518827204670468
-0.455095573376503 -0.763920192155489 0.558501480454773
-0.455095573376503 -0.763920192155489 0.598175756239078
-0.455095573376503 -0.763920192155489 0.637850032023382
-0.455095573376503 -0.763920192155489 0.677524307807687
-0.455095573376503 -0.763920192155489 0.717198583591992
-0.455095573376503 -0.763920192155489 0.756872859376297
-0.455095573376503 -0.763920192155489 0.796547135160602
-0.455095573376503 -0.763920192155489 0.836221410944907
-0.455095573376503 -0.724646809556094 0.003061619474504
-0.455095573376503 -0.724646809556094 0.042735895258809
-0.455095573376503 -0.724646809556094 0.082410171043114
-0.455095573376503 -0.724646809556094 0.122084446827419
-0.455095573376503 -0.724646809556094 0.161758722611724
-0.455095573376503 -0.724646809556094 0.201432998396029
-0.455095573376503 -0.724646809556094 0.241107274180333
-0.455095573376503 -0.724646809556094 0.280781549964638
-0.455095573376503 -0.724646809556094 0.320455825748943
-0.455095573376503 -0.724646809556094 0.360130101533248
-0.455095573376503 -0.724646809556094 0.399804377317553
-0.455095573376503 -0.724646809556094 0.439478653101858
-0.455095573376503 -0.724646809556094 0.479152928886163
-0.455095573376503 -0.724646809556094 0.518827204670468
-0.455095573376503 -0.724646809556094 0.558501480454773
-0.455095573376503 -0.724646809556094 0.598175756239078
-0.455095573376503 -0.724646809556094 0.637850032023382
-0.455095573376503 -0.724646809556094 0.677524307807687
-0.455095573376503 -0.724646809556094 0.717198583591992
-0.455095573376503 -0.724646809556094 0.756872859376297
-0.455095573376503 -0.724646809556094 0.796547135160602
-0.455095573376503 -0.724646809556094 0.836221410944907
-0.455095573376503 -0.685373426956698 0.003061619474504
-0.455095573376503 -0.685373426956698 0.042735895258809
-0.455095573376503 -0.685373426956698 0.082410171043114
-0.455095573376503 -0.685373426956698 0.122084446827419
-0.455095573376503 -0.685373426956698 0.161758722611724
-0.455095573376503 -0.685373426956698 0.201432998396029
-0.455095573376503 -0.685373426956698 0.241107274180333
-0.455095573376503 -0.685373426956698 0.280781549964638
-0.455095573376503 -0.685373426956698 0.320455825748943
-0.455095573376503 -0.685373426956698 0.360130101533248
-0.455095573376503 -0.685373426956698 0.399804377317553
-0.455095573376503 -0.685373426956698 0.439478653101858
-0.455095573376503 -0.685373426956698 0.479152928886163
-0.455095573376503 -0.685373426956698 0.518827204670468
-0.455095573376503 -0.685373426956698 0.558501480454773
-0.455095573376503 -0.685373426956698 0.598175756239078
-0.455095573376503 -0.685373426956698 0.637850032023382
-0.455095573376503 -0.685373426956698 0.677524307807687
-0.455095573376503 -0.685373426956698 0.717198583591992
-0.455095573376503 -0.685373426956698 0.756872859376297
-0.455095573376503 -0.685373426956698 0.796547135160602
-0.455095573376503 -0.685373426956698 0.836221410944907
-0.455095573376503 -0.646100044357303 0.003061619474504
-0.455095573376503 -0.646100044357303 0.042735895258809
-0.455095573376503 -0.646100044357303 0.082410171043114
-0.455095573376503 -0.646100044357303 0.122084446827419
-0.455095573376503 -0.646100044357303 0.161758722611724
-0.455095573376503 -0.646100044357303 0.201432998396029
-0.455095573376503 -0.646100044357303 0.241107274180333
-0.455095573376503 -0.646100044357303 0.280781549964638
-0.455095573376503 -0.646100044357303 0.320455825748943
-0.455095573376503 -0.646100044357303 0.360130101533248
-0.455095573376503 -0.646100044357303 0.399804377317553
-0.455095573376503 -0.646100044357303 0.439478653101858
-0.455095573376503 -0.646100044357303 0.479152928886163
-0.455095573376503 -0.646100044357303 0.518827204670468
-0.455095573376503 -0.646100044357303 0.558501480454773
-0.455095573376503 -0.646100044357303 0.598175756239078
-0.455095573376503 -0.646100044357303 0.637850032023382
-0.455095573376503 -0.646100044357303 0.677524307807687
-0.455095573376503 -0.646100044357303 0.717198583591992
-0.455095573376503 -0.646100044357303 0.756872859376297
-0.455095573376503 -0.646100044357303 0.796547135160602
-0.455095573376503 -0.646100044357303 0.836221410944907
-0.415693230584147 -1.156654018149442 0.003061619474504
-0.415693230584147 -1.156654018149442 0.042735895258809
-0.415693230584147 -1.156654018149442 0.082410171043114
-0.415693230584147 -1.156654018149442 0.122084446827419
-0.415693230584147 -1.156654018149442 0.161758722611724
-0.415693230584147 -1.156654018149442 0.201432998396029
-0.415693230584147 -1.156654018149442 0.241107274180333
-0.415693230584147 -1.156654018149442 0.280781549964638
-0.415693230584147 -1.156654018149442 0.320455825748943
-0.415693230584147 -1.156654018149442 0.360130101533248
-0.415693230584147 -1.156654018149442 0.399804377317553
-0.415693230584147 -1.156654018149442 0.439478653101858
-0.415693230584147 -1.156654018149442 0.479152928886163
-0.415693230584147 -1.156654018149442 0.518827204670468
-0.415693230584147 -1.156654018149442 0.558501480454773
-0.415693230584147 -1.156654018149442 0.598175756239078
-0.415693230584147 -1.156654018149442 0.637850032023382
-0.415693230584147 -1.156654018149442 0.677524307807687
-0.415693230584147 -1.156654018149442 0.717198583591992
-0.415693230584147 -1.156654018149442 0.756872859376297
-0.415693230584147 -1.156654018149442 0.796547135160602
-0.415693230584147 -1.156654018149442 0.836221410944907
-0.415693230584147 -1.117380635550047 0.003061619474504
-0.415693230584147 -1.117380635550047 0.836221410944907
-0.415693230584147 -1.078107252950651 0.003061619474504
-0.415693230584147 -1.078107252950651 0.836221410944907
-0.415693230584147 -1.038833870351256 0.003061619474504
-0.415693230584147 -1.038833870351256 0.836221410944907
-0.415693230584147 -0.999560487751861 0.003061619474504
-0.415693230584147 -0.999560487751861 0.836221410944907
-0.415693230584147 -0.960287105152465 0.003061619474504
-0.415693230584147 -0.960287105152465 0.836221410944907
-0.415693230584147 -0.921013722553070 0.003061619474504
-0.415693230584147 -0.921013722553070 0.836221410944907
-0.415693230584147 -0.881740339953675 0.003061619474504
-0.415693230584147 -0.881740339953675 0.836221410944907
-0.415693230584147 -0.842466957354279 0.003061619474504
-0.415693230584147 -0.842466957354279 0.836221410944907
-0.415693230584147 -0.803193574754884 0.003061619474504
-0.415693230584147 -0.803193574754884 0.836221410944907
-0.415693230584147 -0.763920192155489 0.003061619474504
-0.415693230584147 -0.763920192155489 0.836221410944907
-0.415693230584147 -0.724646809556094 0.003061619474504
-0.415693230584147 -0.724646809556094 0.836221410944907
-0.415693230584147 -0.685373426956698 0.003061619474504
-0.415693230584147 -0.685373426956698 0.836221410944907
-0.415693230584147 -0.646100044357303 0.003061619474504
-0.415693230584147 -0.646100044357303 0.042735895258809
-0.415693230584147 -0.646100044357303 0.082410171043114
-0.415693230584147 -0.646100044357303 0.122084446827419
-0.415693230584147 -0.646100044357303 0.161758722611724
-0.415693230584147 -0.646100044357303 0.201432998396029
-0.415693230584147 -0.646100044357303 0.241107274180333
-0.415693230584147 -0.646100044357303 0.280781549964638
-0.415693230584147 -0.646100044357303 0.320455825748943
-0.415693230584147 -0.646100044357303 0.360130101533248
-0.415693230584147 -0.646100044357303 0.399804377317553
-0.415693230584147 -0.646100044357303 0.439478653101858
-0.415693230584147 -0.646100044357303 0.479152928886163
-0.415693230584147 -0.646100044357303 0.518827204670468
-0.415693230584147 -0.646100044357303 0.558501480454773
-0.415693230584147 -0.646100044357303 0.598175756239078
-0.415693230584147 -0.646100044357303 0.637850032023382
-0.415693230584147 -0.646100044357303 0.677524307807687
-0.415693230584147 -0.646100044357303 0.717198583591992
-0.415693230584147 -0.646100044357303 0.756872859376297
-0.415693230584147 -0.646100044357303 0.796547135160602
-0.415693230584147 -0.646100044357303 0.836221410944907
-0.376290887791791 -1.156654018149442 0.003061619474504
-0.376290887791791 -1.156654018149442 0.042735895258809
-0.376290887791791 -1.156654018149442 0.082410171043114
-0.376290887791791 -1.156654018149442 0.122084446827419
-0.376290887791791 -1.156654018149442 0.161758722611724
-0.376290887791791 -1.156654018149442 0.201432998396029
-0.376290887791791 -1.156654018149442 0.241107274180333
-0.376290887791791 -1.156654018149442 0.280781549964638
-0.376290887791791 -1.156654018149442 0.320455825748943
-0.376290887791791 -1.156654018149442 0.360130101533248
-0.376290887791791 -1.156654018149442 0.399804377317553
-0.376290887791791 -1.156654018149442 0.439478653101858
-0.376290887791791 -1.156654018149442 0.479152928886163
-0.376290887791791 -1.156654018149442 0.518827204670468
-0.376290887791791 -1.156654018149442 0.558501480454773
-0.376290887791791 -1.156654018149442 0.598175756239078
-0.376290887791791 -1.156654018149442 0.637850032023382
-0.376290887791791 -1.156654018149442 0.677524307807687
-0.376290887791791 -1.156654018149442 0.717198583591992
-0.376290887791791 -1.156654018149442 0.756872859376297
-0.376290887791791 -1.156654018149442 0.796547135160602
-0.376290887791791 -1.156654018149442 0.836221410944907
-0.376290887791791 -1.117380635550047 0.003061619474504
-0.376290887791791 -1.117380635550047 0.836221410944907
-0.376290887791791 -1.078107252950651 0.003061619474504
-0.376290887791791 -1.078107252950651 0.836221410944907
-0.376290887791791 -1.038833870351256 0.003061619474504
-0.376290887791791 -1.038833870351256 0.836221410944907
-0.376290887791791 -0.999560487751861 0.003061619474504
-0.376290887791791 -0.999560487751861 0.836221410944907
-0.376290887791791 -0.960287105152465 0.003061619474504
-0.376290887791791 -0.960287105152465 0.836221410944907
-0.376290887791791 -0.921013722553070 0.003061619474504
-0.376290887791791 -0.921013722553070 0.836221410944907
-0.376290887791791 -0.881740339953675 0.003061619474504
-0.376290887791791 -0.881740339953675 0.836221410944907
-0.376290887791791 -0.842466957354279 0.003061619474504
-0.376290887791791 -0.842466957354279 0.836221410944907
-0.376290887791791 -0.803193574754884 0.003061619474504
-0.376290887791791 -0.803193574754884 0.836221410944907
-0.376290887791791 -0.763920192155489 0.003061619474504
-0.376290887791791 -0.763920192155489 0.836221410944907
-0.376290887791791 -0.724646809556094 0.003061619474504
-0.376290887791791 -0.724646809556094 0.836221410944907
-0.376290887791791 -0.685373426956698 0.003061619474504
-0.376290887791791 -0.685373426956698 0.836221410944907
-0.376290887791791 -0.646100044357303 0.003061619474504
-0.376290887791791 -0.646100044357303 0.042735895258809
-0.376290887791791 -0.646100044357303 0.082410171043114
-0.376290887791791 -0.646100044357303 0.122084446827419
-0.376290887791791 -0.646100044357303 0.161758722611724
-0.376290887791791 -0.646100044357303 0.201432998396029
-0.376290887791791 -0.646100044357303 0.241107274180333
-0.376290887791791 -0.646100044357303 0.280781549964638
-0.376290887791791 -0.646100044357303 0.320455825748943
-0.376290887791791 -0.646100044357303 0.360130101533248
-0.376290887791791 -0.646100044357303 0.399804377317553
-0.376290887791791 -0.646100044357303 0.439478653101858
-0.376290887791791 -0.646100044357303 0.479152928886163
-0.376290887791791 -0.646100044357303 0.518827204670468
-0.376290887791791 -0.646100044357303 0.558501480454773
-0.376290887791791 -0.646100044357303 0.598175756239078
-0.376290887791791 -0.646100044357303 0.637850032023382
-0.376290887791791 -0.646100044357303 0.677524307807687
-0.376290887791791 -0.646100044357303 0.717198583591992
-0.376290887791791 -0.646100044357303 0.756872859376297
-0.376290887791791 -0.646100044357303 0.796547135160602
-0.376290887791791 -0.646100044357303 0.836221410944907
-0.336888544999435 -1.156654018149442 0.003061619474504
-0.336888544999435 -1.156654018149442 0.042735895258809
-0.336888544999435 -1.156654018149442 0.082410171043114
-0.336888544999435 -1.156654018149442 0.122084446827419
-0.336888544999435 -1.156654018149442 0.161758722611724
-0.336888544999435 -1.156654018149442 0.201432998396029
-0.336888544999435 -1.156654018149442 0.241107274180333
-0.336888544999435 -1.156654018149442 0.280781549964638
-0.336888544999435 -1.156654018149442 0.320455825748943
-0.336888544999435 -1.156654018149442 0.360130101533248
-0.336888544999435 -1.156654018149442 0.399804377317553
-0.336888544999435 -1.156654018149442 0.439478653101858
-0.336888544999435 -1.156654018149442 0.479152928886163
-0.336888544999435 -1.156654018149442 0.518827204670468
-0.336888544999435 -1.156654018149442 0.558501480454773
-0.336888544999435 -1.156654018149442 0.598175756239078
-0.336888544999435 -1.156654018149442 0.637850032023382
-0.336888544999435 -1.156654018149442 0.677524307807687
-0.336888544999435 -1.156654018149442 0.717198583591992
-0.336888544999435 -1.156654018149442 0.756872859376297
-0.336888544999435 -1.156654018149442 0.796547135160602
-0.336888544999435 -1.156654018149442 0.836221410944907
-0.336888544999435 -1.117380635550047 0.003061619474504
-0.336888544999435 -1.117380635550047 0.836221410944907
-0.336888544999435 -1.078107252950651 0.003061619474504
-0.336888544999435 -1.078107252950651 0.836221410944907
-0.336888544999435 -1.038833870351256 0.003061619474504
-0.336888544999435 -1.038833870351256 0.836221410944907
-0.336888544999435 -0.999560487751861 0.003061619474504
-0.336888544999435 -0.999560487751861 0.836221410944907
-0.336888544999435 -0.960287105152465 0.003061619474504
-0.336888544999435 -0.960287105152465 0.836221410944907
-0.336888544999435 -0.921013722553070 0.003061619474504
-0.336888544999435 -0.921013722553070 0.836221410944907
-0.336888544999435 -0.881740339953675 0.003061619474504
-0.336888544999435 -0.881740339953675 0.836221410944907
-0.336888544999435 -0.842466957354279 0.003061619474504
-0.336888544999435 -0.842466957354279 0.836221410944907
-0.336888544999435 -0.803193574754884 0.003061619474504
-0.336888544999435 -0.803193574754884 0.836221410944907
-0.336888544999435 -0.763920192155489 0.003061619474504
-0.336888544999435 -0.763920192155489 0.836221410944907
-0.336888544999435 -0.724646809556094 0.003061619474504
-0.336888544999435 -0.724646809556094 0.836221410944907
-0.336888544999435 -0.685373426956698 0.003061619474504
-0.336888544999435 -0.685373426956698 0.836221410944907
-0.336888544999435 -0.646100044357303 0.003061619474504
-0.336888544999435 -0.646100044357303 0.042735895258809
-0.336888544999435 -0.646100044357303 0.082410171043114
-0.336888544999435 -0.646100044357303 0.122084446827419
-0.336888544999435 -0.646100044357303 0.161758722611724
-0.336888544999435 -0.646100044357303 0.201432998396029
-0.336888544999435 -0.646100044357303 0.241107274180333
-0.336888544999435 -0.646100044357303 0.280781549964638
-0.336888544999435 -0.646100044357303 0.320455825748943
-0.336888544999435 -0.646100044357303 0.360130101533248
-0.336888544999435 -0.646100044357303 0.399804377317553
-0.336888544999435 -0.646100044357303 0.439478653101858
-0.336888544999435 -0.646100044357303 0.479152928886163
-0.336888544999435 -0.646100044357303 0.518827204670468
-0.336888544999435 -0.646100044357303 0.558501480454773
-0.336888544999435 -0.646100044357303 0.598175756239078
-0.336888544999435 -0.646100044357303 0.637850032023382
-0.336888544999435 -0.646100044357303 0.677524307807687
-0.336888544999435 -0.646100044357303 0.717198583591992
-0.336888544999435 -0.646100044357303 0.756872859376297
-0.336888544999435 -0.646100044357303 0.796547135160602
-0.336888544999435 -0.646100044357303 0.836221410944907
-0.297486202207079 -1.156654018149442 0.003061619474504
-0.297486202207079 -1.156654018149442 0.042735895258809
-0.297486202207079 -1.156654018149442 0.082410171043114
-0.297486202207079 -1.156654018149442 0.122084446827419
-0.297486202207079 -1.156654018149442 0.161758722611724
-0.297486202207079 -1.156654018149442 0.201432998396029
-0.297486202207079 -1.156654018149442 0.241107274180333
-0.297486202207079 -1.156654018149442 0.280781549964638
-0.297486202207079 -1.156654018149442 0.320455825748943
-0.297486202207079 -1.156654018149442 0.360130101533248
-0.297486202207079 -1.156654018149442 0.399804377317553
-0.297486202207079 -1.156654018149442 0.439478653101858
-0.297486202207079 -1.156654018149442 0.479152928886163
-0.297486202207079 -1.156654018149442 0.518827204670468
-0.297486202207079 -1.156654018149442 0.558501480454773
-0.297486202207079 -1.156654018149442 0.598175756239078
-0.297486202207079 -1.156654018149442 0.637850032023382
-0.297486202207079 -1.156654018149442 0.677524307807687
-0.297486202207079 -1.156654018149442 0.717198583591992
-0.297486202207079 -1.156654018149442 0.756872859376297
-0.297486202207079 -1.156654018149442 0.796547135160602
-0.297486202207079 -1.156654018149442 0.836221410944907
-0.297486202207079 -1.117380635550047 0.003061619474504
-0.297486202207079 -1.117380635550047 0.836221410944907
-0.297486202207079 -1.078107252950651 0.003061619474504
-0.297486202207079 -1.078107252950651 0.836221410944907
-0.297486202207079 -1.038833870351256 0.003061619474504
-0.297486202207079 -1.038833870351256 0.836221410944907
-0.297486202207079 -0.999560487751861 0.003061619474504
-0.297486202207079 -0.999560487751861 0.836221410944907
-0.297486202207079 -0.960287105152465 0.003061619474504
-0.297486202207079 -0.960287105152465 0.836221410944907
-0.297486202207079 -0.921013722553070 0.003061619474504
-0.297486202207079 -0.921013722553070 0.836221410944907
-0.297486202207079 -0.881740339953675 0.003061619474504
-0.297486202207079 -0.881740339953675 0.836221410944907
-0.297486202207079 -0.842466957354279 0.003061619474504
-0.297486202207079 -0.842466957354279 0.836221410944907
-0.297486202207079 -0.803193574754884 0.003061619474504
-0.297486202207079 -0.803193574754884 0.836221410944907
-0.297486202207079 -0.763920192155489 0.003061619474504
-0.297486202207079 -0.763920192155489 0.836221410944907
-0.297486202207079 -0.724646809556094 0.003061619474504
-0.297486202207079 -0.724646809556094 0.836221410944907
-0.297486202207079 -0.685373426956698 0.003061619474504
-0.297486202207079 -0.685373426956698 0.836221410944907
-0.297486202207079 -0.646100044357303 0.003061619474504
-0.297486202207079 -0.646100044357303 0.042735895258809
-0.297486202207079 -0.646100044357303 0.082410171043114
-0.297486202207079 -0.646100044357303 0.122084446827419
-0.297486202207079 -0.646100044357303 0.161758722611724
-0.297486202207079 -0.646100044357303 0.201432998396029
-0.297486202207079 -0.646100044357303 0.241107274180333
-0.297486202207079 -0.646100044357303 0.280781549964638
-0.297486202207079 -0.646100044357303 0.320455825748943
-0.297486202207079 -0.646100044357303 0.360130101533248
-0.297486202207079 -0.646100044357303 0.399804377317553
-0.297486202207079 -0.646100044357303 0.439478653101858
-0.297486202207079 -0.646100044357303 0.479152928886163
-0.297486202207079 -0.646100044357303 0.518827204670468
-0.297486202207079 -0.646100044357303 0.558501480454773
-0.297486202207079 -0.646100044357303 0.598175756239078
-0.297486202207079 -0.646100044357303 0.637850032023382
-0.297486202207079 -0.646100044357303 0.677524307807687
-0.297486202207079 -0.646100044357303 0.717198583591992
-0.297486202207079 -0.646100044357303 0.756872859376297
-0.297486202207079 -0.646100044357303 0.796547135160602
-0.297486202207079 -0.646100044357303 0.836221410944907
-0.258083859414723 -1.156654018149442 0.003061619474504
-0.258083859414723 -1.156654018149442 0.042735895258809
-0.258083859414723 -1.156654018149442 0.082410171043114
-0.258083859414723 -1.156654018149442 0.122084446827419
-0.258083859414723 -1.156654018149442 0.161758722611724
-0.258083859414723 -1.156654018149442 0.201432998396029
-0.258083859414723 -1.156654018149442 0.241107274180333
-0.258083859414723 -1.156654018149442 0.280781549964638
-0.258083859414723 -1.156654018149442 0.320455825748943
-0.258083859414723 -1.156654018149442 0.360130101533248
-0.258083859414723 -1.156654018149442 0.399804377317553
-0.258083859414723 -1.156654018149442 0.439478653101858
-0.258083859414723 -1.156654018149442 0.479152928886163
-0.258083859414723 -1.156654018149442 0.518827204670468
-0.258083859414723 -1.156654018149442 0.558501480454773
-0.258083859414723 -1.156654018149442 0.598175756239078
-0.258083859414723 -1.156654018149442 0.637850032023382
-0.258083859414723 -1.156654018149442 0.677524307807687
-0.258083859414723 -1.156654018149442 0.717198583591992
-0.258083859414723 -1.156654018149442 0.756872859376297
-0.258083859414723 -1.156654018149442 0.796547135160602
-0.258083859414723 -1.156654018149442 0.836221410944907
-0.258083859414723 -1.117380635550047 0.003061619474504
-0.258083859414723 -1.117380635550047 0.836221410944907
-0.258083859414723 -1.078107252950651 0.003061619474504
-0.258083859414723 -1.078107252950651 0.836221410944907
-0.258083859414723 -1.038833870351256 0.003061619474504
-0.258083859414723 -1.038833870351256 0.836221410944907
-0.258083859414723 -0.999560487751861 0.003061619474504
-0.258083859414723 -0.999560487751861 0.836221410944907
-0.258083859414723 -0.960287105152465 0.003061619474504
-0.258083859414723 -0.960287105152465 0.836221410944907
-0.258083859414723 -0.921013722553070 0.003061619474504
-0.258083859414723 -0.921013722553070 0.836221410944907
-0.258083859414723 -0.881740339953675 0.003061619474504
-0.258083859414723 -0.881740339953675 0.836221410944907
-0.258083859414723 -0.842466957354279 0.003061619474504
-0.258083859414723 -0.842466957354279 0.836221410944907
-0.258083859414723 -0.803193574754884 0.003061619474504
-0.258083859414723 -0.803193574754884 0.836221410944907
-0.258083859414723 -0.763920192155489 0.003061619474504
-0.258083859414723 -0.763920192155489 0.836221410944907
-0.258083859414723 -0.724646809556094 0.003061619474504
-0.258083859414723 -0.724646809556094 0.836221410944907
-0.258083859414723 -0.685373426956698 0.003061619474504
-0.258083859414723 -0.685373426956698 0.836221410944907
-0.258083859414723 -0.646100044357303 0.003061619474504
-0.258083859414723 -0.646100044357303 0.042735895258809
-0.258083859414723 -0.646100044357303 0.082410171043114
-0.258083859414723 -0.646100044357303 0.122084446827419
-0.258083859414723 -0.646100044357303 0.161758722611724
-0.258083859414723 -0.646100044357303 0.201432998396029
-0.258083859414723 -0.646100044357303 0.241107274180333
-0.258083859414723 -0.646100044357303 0.280781549964638
