# This PCD file was generated using the MATLAB® pcwrite function
# from Computer Vision Toolbox®.
# .PCD v.7 - Point Cloud Data file format
VERSION .7
FIELDS x y z
SIZE 8 8 8
TYPE F F F
COUNT 1 1 1
WIDTH 866
HEIGHT 1
VIEWPOINT 0 0 0 1 0 0 0
POINTS 866
DATA ascii
0.753805435474826 -0.198945914140447 0.567224264498707
0.558239432453681 -0.601799443041741 0.318778115564877
0.850130244196082 -0.527518470568317 0.501128455150082
0.345007645010021 -0.442362515218429 0.311705550600124
0.848602963644500 -0.508438584097371 0.464817817118494
0.422758455022275 -0.199448333840386 0.031685196976695
0.471639635600757 -0.279823322590244 -0.004626969763198
0.786064320782262 -0.389478927176218 0.002589663355957
0.401714563585815 -0.600063723880854 0.271743251007655
0.836890390115692 -0.552170008599856 -0.001889933578120
0.346786786656315 -0.599918569557245 0.445590488503565
0.681327504864998 -0.198833644831573 0.076268908449751
0.347942344050314 -0.253593397631083 0.116735866866259
0.815169029493769 -0.600563893552017 0.073105207773949
0.350683579917261 -0.542942957177608 0.005909850654864
0.697256343462679 -0.199029338711236 0.398028570613285
0.408055415206105 -0.489563104389444 0.601258164819575
0.847913694509100 -0.462672256775173 0.095272458866541
0.850243908294202 -0.310566977592864 0.190176074486857
0.349347767878211 -0.463177872337440 0.298945229194775
0.507349876304993 -0.595860877558920 0.298263896730508
0.348090659244764 -0.557266409308609 0.219765850394769
0.382173649714212 -0.595298241820048 0.296066320982033
0.346803042861281 -0.553710966114732 0.255512451824022
0.790818375014697 -0.595581490113950 0.497776801791967
0.345238411581864 -0.596756506798691 0.021231297210217
0.696154822476922 -0.245586617809050 -0.002738726304186
0.733687670598425 -0.196273490453241 0.145475530373505
0.631967050346758 -0.315098827757537 0.603815270439911
0.713568011931291 -0.441016583591456 0.596074529204105
0.675710304333057 -0.200373721466469 0.176261400620594
0.347737885123524 -0.418227778918216 0.372440632764016
0.542367174612785 -0.599418288257013 0.456274328231036
0.816382307448147 -0.423157199579345 0.604303634384020
0.833758582242304 -0.198031410960199 0.273977376069508
0.851550986507084 -0.340852189017123 0.034892828165069
0.851020804759492 -0.524115676437602 0.561234443405377
0.348197219022984 -0.419025147507182 0.508172604272832
0.853325460413288 -0.403300052731757 0.240826981899382
0.728735902921705 -0.292455660292373 0.003448984125598
0.350138049866000 -0.337233476209386 0.187573808265566
0.606269391140622 -0.199236739806828 0.441534625630671
0.695910122224660 -0.390034987360212 0.593985848901191
0.363631670908580 -0.415249702692423 0.599240444500153
0.735482696630371 -0.202266650744518 0.038029668025857
0.345906863555441 -0.516532598137486 0.579452800117735
0.352172492082091 -0.335622238849807 0.504418677048753
0.406323432974289 -0.202496756601502 0.472298320857837
0.402441868462450 -0.194767146073261 0.185295194343173
0.363831693350243 -0.196334205797262 0.177120738373881
0.849707103749055 -0.234090701464745 0.346313506409115
0.651419082882323 -0.255598978579848 0.003772765444462
0.852086456868724 -0.452430489914322 0.562920504806842
0.744731478466766 -0.204132621151665 0.158542256517758
0.666279515122830 -0.358323239353049 -0.001314861113621
0.658064356474070 -0.599538203934994 0.435619666103724
0.594460378165458 -0.199232863370709 0.131527983885773
0.855229289947259 -0.603508492671071 0.243270096832847
0.472238369198434 -0.526419824609542 -0.000634022348007
0.851497294784622 -0.550824800382730 0.420653632298104
0.682709732073905 -0.253686770558214 0.598987050489968
0.477067042723711 -0.247676430469930 0.004715932351513
0.845399083345373 -0.414724735470570 0.408533055960233
0.526254896326955 -0.458240953771804 0.601514242255950
0.419212128416744 -0.334992749169131 0.000984825393816
0.828051549032093 -0.599751970253641 0.516564748457774
0.820591816182405 -0.200759888444923 0.373827033292759
0.391871270049855 -0.431153269429253 -0.002724872065300
0.767168543454237 -0.594522648198036 0.551487589108958
0.595088153436012 -0.263691315107007 0.602122851344225
0.736143101097923 -0.598873242106560 0.527322835920971
0.855718722147495 -0.535354804057246 0.539851767960016
0.357996260716110 -0.540472338856584 0.233682001608621
0.849884651695044 -0.241192200610871 0.515007061639643
0.847281657625239 -0.238097360212362 0.344834666220313
0.845568230212337 -0.410919833942130 0.021767076170010
0.784853769830672 -0.200509168548443 0.381070931284405
0.349006292225678 -0.332450306999307 0.285062394408710
0.443059758978170 -0.489761298607807 0.001415752184951
0.510827576646156 -0.208576676013347 0.599330264744205
0.423024998444269 -0.603302534565807 0.029168101389216
0.736630291548275 -0.201618528978620 0.571239412354601
0.349517606963364 -0.205623918641186 0.094898163799567
0.620650029080753 -0.194605371298521 0.228597140796163
0.683200998674606 -0.600138842752967 0.257667752430635
0.721930398749039 -0.310581937546610 0.603139027496866
0.853828957652088 -0.508160967646743 0.123496407354350
0.515441392698818 -0.204201651508747 0.599501755476845
0.552591785927675 -0.297790282779001 0.597812330160208
0.649457873350184 -0.595706442776336 0.471466002413018
0.355458929536184 -0.262392381132848 0.059912189758267
0.478641615584064 -0.603303932062171 0.286185052852840
0.586358304681576 -0.597257356589850 0.568358499865391
0.725402802691153 -0.198663972633228 0.162472173956351
0.393413289638214 -0.201257999907206 0.084168060113412
0.845693653833646 -0.389371039809466 0.288980659315927
0.344779825456017 -0.540065181821484 0.556864037264588
0.849842312709595 -0.382883023445275 0.288689789350342
0.348790873600943 -0.300620609934284 0.241875442008071
0.352520934373075 -0.507054518446558 0.391873958940640
0.347643979544052 -0.261634057746533 0.567556498054740
0.347680683948391 -0.473789956251580 0.023868386946603
0.445489387999946 -0.534644243384954 0.595295409060057
0.587372290537288 -0.551669401236696 0.600470239931826
0.350806633029404 -0.253500207214420 0.050644757178528
0.347795249303430 -0.573113505679667 0.179521149189077
0.511647507216410 -0.510756217799758 0.001402427964776
0.674679199620218 -0.601555297149915 0.329197182618588
0.347624061784000 -0.454380417043043 0.197807985619768
0.382816297150475 -0.431703031695085 0.599022184962713
0.515948650256192 -0.199166629508402 0.563406011897849
0.756965760035773 -0.602431771748101 0.097165541439022
0.832129023714000 -0.441970173028382 0.000865107440278
0.347445647911947 -0.582328551297071 0.152044165059246
0.634835374344847 -0.382951529337508 0.005163006045457
0.347888049353884 -0.553305955979081 0.440811345346384
0.687564236243138 -0.598427790515073 0.497608533493463
0.355379627222386 -0.200470652003358 0.311179770690154
0.358501807011575 -0.262287689609296 0.599472824238595
0.848952822413636 -0.290611476912961 0.472499493413310
0.386826859918215 -0.599538022669986 0.092565016389431
0.505017286326764 -0.505109627468237 0.599900217436561
0.829971125747483 -0.200168082861874 0.403888185777136
0.845188070489647 -0.205530988906674 0.584099310720140
0.349117945973849 -0.527084085071060 0.228583720383042
0.631389605274697 -0.513399732568709 0.598307743270162
0.627339943175041 -0.248256848563389 -0.004613000500764
0.574019036352395 -0.205736157067058 0.118772191379763
0.814209573742952 -0.595272472120139 0.423014413604755
0.348437600460507 -0.295888553451772 0.021121948316340
0.730039049410122 -0.200546600776630 0.015110850325113
0.485013868234035 -0.199926082517793 0.274729300518049
0.568286080582899 -0.598457827510251 0.392262560127797
0.593702506571052 -0.542784269148804 -0.001408882248526
0.501109975827530 -0.288329242889672 0.597909697404881
0.346772137224705 -0.557170582915257 0.073210480932078
0.417796748190419 -0.597591549928033 0.323705243790725
0.850251896453272 -0.523248250944236 0.187244487762533
0.352406231534016 -0.516528774477021 0.446274933756302
0.347563572098867 -0.499892107516918 0.482438290420094
0.477471092000844 -0.199211354414121 0.043882300542084
0.581737719353157 -0.524700526252136 0.600685425491344
0.607735589190744 -0.197790538498240 0.536037858369887
0.503089361127008 -0.435451185868961 -0.000818467857551
0.352811963119469 -0.238462096543768 0.281764216919760
0.629098875970963 -0.199009617804392 0.097261939792359
0.349249513885579 -0.287794002009798 0.598724250148760
0.356233245366115 -0.229043165189900 0.551442286527123
0.426815770418668 -0.596579916174072 -0.003328335692568
0.562827534052902 -0.192262573758095 0.327721169124141
0.564485205040902 -0.253800806670900 -0.001576731141848
0.530310818585947 -0.200978981857801 0.259778209454098
0.346745368522449 -0.594375861912808 0.262767669682846
0.851672809506917 -0.272957477567708 0.223374715989497
0.407522416412669 -0.592916710036498 -0.000212714273074
0.846546510854512 -0.203902638661867 0.473840646287618
0.732618550845846 -0.413827238618469 -0.000478761930604
0.633545807939632 -0.200088456600904 0.320904117830149
0.347050225154126 -0.534486273560989 0.157772215025252
0.612375329028995 -0.598191449904726 0.471412472094739
0.859733702209242 -0.491615886480702 0.473789469638901
0.852255421403605 -0.495137715879587 0.333287396535603
0.763185644145130 -0.240255066118445 0.594491115447423
0.542912323597130 -0.200012933488753 0.070091102335995
0.578229312357151 -0.600180463483943 0.475856338298469
0.352244566536328 -0.265101273348190 0.336704061102617
0.848783474369750 -0.563914540394977 0.142744614348239
0.644256413257949 -0.200863650490928 0.078341392904396
0.642315964643265 -0.605580106434449 0.181417020864233
0.564955874997939 -0.261239840228436 0.595547278875395
0.766541386576292 -0.602285753433128 0.479556660849177
0.821493106616831 -0.342262376827711 0.599573772062316
0.848609710314576 -0.415087651914820 0.054527539877532
0.850748114497844 -0.416526443551526 0.571949291615853
0.849859322578807 -0.393554121394619 0.182911485201750
0.710299512582882 -0.358129209491555 0.598369073599107
0.682214595502283 -0.277310980064473 0.599768527128632
0.849310879265076 -0.515313943933249 0.082634059091189
0.850254341776955 -0.580808355848755 0.395416951082560
0.824838605239683 -0.585334563029400 0.597782013663308
0.481623097375304 -0.557442091063032 -0.004895103979275
0.662871805150278 -0.312991631199406 0.599328653295925
0.351016700263502 -0.267004025840402 0.085984163501337
0.503785983494271 -0.596802243450584 0.268308982879340
0.661121437464641 -0.498521086999495 0.594538291678892
0.344027768261636 -0.556165261381804 0.249737719676135
0.837359004178247 -0.601590939098603 0.044581305828994
0.349225607651723 -0.581564421865973 0.455362259928510
0.346032654462260 -0.426737208682441 0.048393484231333
0.622619596091105 -0.267508931523147 0.004018411936873
0.744626892140272 -0.337859461864697 -0.001175627503644
0.412047398637259 -0.204777897750378 0.247259566402425
0.850428880632355 -0.426239448502342 0.518162501992300
0.497329304569204 -0.528035319038954 0.598780930961986
0.347579917165262 -0.474938281196813 0.155119560100690
0.355386692127633 -0.291702959198988 0.079645744665329
0.351800765560488 -0.192955376613248 0.233428100938680
0.726422278432375 -0.599985734814840 0.596924382084376
0.853196602142382 -0.269881230472626 0.100324281881431
0.797178348596741 -0.600148124161738 0.499890202658634
0.851798874785752 -0.353515726342763 0.392826186912683
0.518005158198607 -0.589436471555367 0.000463573645894
0.563107961440871 -0.224470640237637 0.004341148174787
0.835320857896053 -0.214687263435590 0.597406378192100
0.788192770891077 -0.201767937266577 0.558724399469225
0.347891085449487 -0.413673093666972 0.303094069125349
0.822404529477054 -0.512370304365901 0.601178872903499
0.762990901907448 -0.447210127849272 0.001826994334237
0.846074520288445 -0.239310690347045 0.366574842710140
0.695552278182843 -0.198323073648304 0.225880940540167
0.353979628775137 -0.255124459518896 0.425602440448220
0.792719527066789 -0.206313304316098 0.474375637367669
0.400485219625333 -0.202084739913158 0.124146338327460
0.829566245829772 -0.436475444914495 0.006294985554565
0.350430476408192 -0.468755524620248 0.578309756806949
0.573906359754813 -0.199616726483905 0.147286355054171
0.743849417998868 -0.460672259669541 -0.002588778590661
0.683217229945784 -0.204151162035106 0.020274723404725
0.796321244226957 -0.465487640901775 0.005172548771274
0.851363343554434 -0.435142427293120 0.228228596499740
0.536418713498991 -0.559324503062840 -0.000122779424145
0.351133292621342 -0.582539211598615 0.000216620462849
0.583007617045686 -0.368657958190921 0.001069562239827
0.352392376608004 -0.308407104456708 0.182037510285614
0.500730316825589 -0.193269504797333 0.009116274972719
0.349344385511193 -0.415183373171670 0.512320168047404
0.454871132683278 -0.201463580887444 0.352173758381673
0.346888674291117 -0.293388657470237 0.101290980392762
0.381843981310973 -0.250016225558423 -0.004264176467892
0.347314482738417 -0.317154396092755 0.156147635371923
0.537350597153844 -0.599464496116016 0.138904483811631
0.851053856932945 -0.581915604470039 0.539700998261795
0.781307995896231 -0.527769801958013 0.600575029811871
0.600306379116539 -0.599385236697316 0.526458991669816
0.652470344307856 -0.279025377913289 0.004549466531929
0.718651230996440 -0.197403755314910 0.184142075646270
0.346461525140305 -0.341493510527471 0.018808044695360
0.714259593848476 -0.198289633651506 0.049823682498866
0.735330262530545 -0.554719998721445 0.599596230545766
0.644433597356206 -0.602412667406554 0.530107498296965
0.535089617218961 -0.439868131906488 0.598303038428005
0.844493086968831 -0.500812670661109 0.018082353335673
0.801501704024790 -0.602708193709809 0.336570261756417
0.839352019312414 -0.516305925759778 -0.000902995818694
0.848305486891269 -0.462138646873009 0.144488127813094
0.852368873454730 -0.558734072449981 0.097349210650452
0.458147603039152 -0.293036409150760 0.604326624561918
0.344498128770551 -0.334290004872509 0.003335293066252
0.436255074841418 -0.597920804688251 0.260784107602309
0.737038135700805 -0.600087137010301 0.053600383986969
0.810108769139965 -0.380579891225534 -0.003215106191400
0.830180552788995 -0.461218833433013 0.000507421559282
0.354507940108786 -0.588228494558124 0.598606949132780
0.348395329290355 -0.214399965816346 0.276566495754527
0.356921579965087 -0.305330109124094 0.338837747786444
0.397287520391194 -0.500280675987781 0.004420975155805
0.559625940932890 -0.597143699528318 0.460406194416541
0.701595712024297 -0.450662406332112 0.597528293329618
0.824289615581377 -0.200217639255665 0.445821646961653
0.850357176045005 -0.530975479161079 0.339380599545895
0.346618422717200 -0.548086971841141 0.522777958743649
0.849612018216630 -0.407386783683706 0.327977852872218
0.833741460334242 -0.522424465444750 0.603425876677282
0.837146578281031 -0.273727297728079 0.599887315123684
0.853602560666653 -0.506903491450646 0.473101779680693
0.508171813273757 -0.598193863711122 0.585853362810683
0.800624430792694 -0.558420777698964 0.000191349561513
0.712928483311292 -0.365317619139971 0.600492763793639
0.839128241721499 -0.594248607885621 0.297657834513615
0.349958204449519 -0.246222363071868 0.408232896778679
0.455439782303959 -0.207386514808899 -0.006621875754250
0.727070740899770 -0.198853115474056 0.314090808620999
0.374413862883395 -0.321794399411307 -0.001639123867807
0.753699823262127 -0.453989022164133 0.599589282300248
0.649831091211438 -0.472004799848896 0.598667021015152
0.828179176847276 -0.463781065856368 -0.003292675163462
0.824621500554958 -0.586731358544224 0.600942801480219
0.847625837795591 -0.582021160074224 0.172386760738472
0.346863487960650 -0.539005642117876 0.096246774542254
0.850767036037338 -0.407577890276694 0.274893221141636
0.344983730144880 -0.241112900333202 0.278443740768937
0.854171445023482 -0.274387423717789 0.457656109731422
0.833423548507747 -0.593392999771541 0.299506098222935
0.850314017004055 -0.350063774940329 0.277545130988092
0.478297195349205 -0.198239258014015 0.137283144861940
0.359813832645036 -0.255835681364639 0.000403748119663
0.464971959362061 -0.562942714003082 0.606112461398668
0.689175469119857 -0.209652020506375 -0.002174344288652
0.347325967660981 -0.230994215901128 0.277816118138115
0.511220213616017 -0.601122547456876 0.112230999268161
0.349143026469202 -0.251109537515975 0.214232669830382
0.549452311411073 -0.199206952253421 0.010618965800103
0.502167302578443 -0.603177511347246 0.101453182163948
0.848159672699574 -0.393705093716738 0.203285893404656
0.350056435588217 -0.420586157583721 0.330081362123473
0.805371283018386 -0.552221771121808 0.599843886997902
0.581399500269561 -0.330123117180574 0.597294632340628
0.489685477900207 -0.604179890301930 0.499529600583009
0.347651831697687 -0.262722715080857 0.340857530691622
0.848925862926425 -0.196438623162037 0.178098395739976
0.845673821293259 -0.338384880018085 0.073637674363737
0.479331109874211 -0.592117774538711 -0.006783933934686
0.467848868894257 -0.308201988364277 0.005003448524039
0.852197209427458 -0.575003754414889 0.377874725377415
0.849098701448262 -0.571405342059960 0.290139809039829
0.805593547076449 -0.597889410406795 0.057732815044320
0.350813369021040 -0.565797399824021 0.124770149920536
0.592376010115336 -0.277381015906196 -0.007912837901993
0.700113049065640 -0.407923859564076 0.599676417605455
0.348257271171438 -0.262726022008100 0.579622775705950
0.847202774916372 -0.530271926360606 0.602286449026125
0.566819420032616 -0.276907824181082 0.598131519177782
0.482149617870571 -0.198506296302870 0.152422545503081
0.479828791052062 -0.594478903204342 0.137248045783624
0.352071882916887 -0.477908447126683 0.153033095931448
0.847094974817135 -0.365283776846340 0.587385662511654
0.359014923637035 -0.469391654959202 0.602492072314161
0.558258820839760 -0.197825706554892 0.423948543337476
0.348320773209131 -0.525411257349641 0.577904203433698
0.847067463125794 -0.214150930866226 0.493360423054171
0.643839007735571 -0.600452635950867 0.361805745047673
0.784964231379688 -0.533299764589491 0.599925071855370
0.350669077908571 -0.517778226482555 0.106555255685334
0.752326595001695 -0.405562778054613 0.599917170050022
0.344426984144284 -0.435856053419613 0.567641677792111
0.440408450742806 -0.201870373032005 0.537948660313423
0.732432904128099 -0.536441802484828 0.598298724618928
0.731443582589256 -0.602155579005856 0.173812463369032
0.352448331791753 -0.201775888704047 0.355749074950432
0.851894091632910 -0.285139265618836 0.285099517350999
0.849549804463468 -0.539150719018262 0.078720859211240
0.509244741898257 -0.448429167205469 -0.000146422265442
0.845237302266249 -0.420721845332967 0.572927435693581
0.848082587898734 -0.549950548997984 0.566295964342490
0.352268594148429 -0.285874104548771 0.342166000839575
0.610182604057052 -0.197254275109846 0.379093729129953
0.827075553831355 -0.514842408655074 0.597945254586542
0.347255420194428 -0.367321925054838 0.445495374497479
0.608988966736319 -0.602397184578427 0.032630773421754
0.844402494464068 -0.570825069610808 0.132171484112409
0.421115491047025 -0.196582821153336 0.006795119154352
0.348267506274878 -0.257142942139112 0.229469016788946
0.348181023385461 -0.201473160657660 0.505163714725916
0.557773454558314 -0.202604867971630 0.584428511866941
0.751230091225980 -0.331967153063393 0.595698404083384
0.666937093222620 -0.306519361604938 0.602826203445230
0.830175593454549 -0.192562205643828 0.156309817406745
0.853721369668949 -0.508694593402456 0.314770902980061
0.349023081989762 -0.376603200222991 0.444530811790047
0.552394855851128 -0.603373832890742 0.306347709095972
0.625665828430696 -0.564478855001549 0.000060324924713
0.485594434677917 -0.300632251502550 -0.005401851506815
0.601470368025773 -0.599189659471318 0.134600925398514
0.657988143415894 -0.200078026898625 0.055701630040026
0.388351685993798 -0.413645714721358 0.595491044207483
0.725229759426534 -0.197980546124839 0.047695062588201
0.705117507433391 -0.599094583859337 0.378976069571113
0.353045892155003 -0.248431175472424 0.389822328844045
0.348408464758423 -0.431960074917115 0.157726182862836
0.843029027130130 -0.578216022890972 0.578202999268058
0.580607591405983 -0.197103272088733 0.495011457546717
0.423258912302562 -0.598706296868403 0.066622721117012
0.676136820739733 -0.296073967095247 0.593771529736794
0.369285569744596 -0.458595234866314 0.601269153789152
0.535133977464424 -0.292102599470673 -0.003460349965414
0.848775494591096 -0.569655534075929 0.484066307107705
0.354513747541410 -0.200918336957289 0.094341472607492
0.832528067495184 -0.603750842353212 0.396542706751197
0.847025792132866 -0.255214065200613 0.602878969425556
0.350425757209378 -0.380674783610820 0.196473437730197
0.850023818781704 -0.509892064688222 0.043038490322241
0.348708269905461 -0.238235855529855 0.011716959632539
0.812196740210913 -0.557424336219721 0.004667559705539
0.776268076166541 -0.594115526503799 -0.002842650793385
0.622402187234322 -0.200394652240503 0.197505877679419
0.389329438510364 -0.479003560498544 0.000431478057729
0.843671124015723 -0.560592836083156 0.066858212206890
0.352576439264897 -0.241096669861734 0.387463601585507
0.784884485013602 -0.202569557082616 0.601662278032231
0.347361413901964 -0.426038272741549 0.539638756021550
0.349780447632794 -0.471220549140329 0.158773480525427
0.667870772495062 -0.289991971210744 -0.000695267226821
0.754046120832256 -0.597989325064832 0.558486881736215
0.718952680875782 -0.237142738776842 -0.006045161673835
0.854700982869879 -0.351338502031628 0.527012237201328
0.464835079425410 -0.199621842707839 0.476060698969912
0.350376045027734 -0.495500782356550 0.169466508498773
0.714271707500139 -0.562187829626608 0.004824375385988
0.345218194617165 -0.283153448664589 0.293241782394116
0.408286262654165 -0.200814309645961 0.034532665881149
0.847929192663583 -0.522967452187799 0.602050255008859
0.688483962007933 -0.460571628703138 0.600216718275733
0.345021168251721 -0.449197278141243 0.574968780168177
0.849265982302024 -0.368584669816751 0.465706887760665
0.654872642043462 -0.202646161462830 0.245933852274907
0.735965417517067 -0.198462209328606 0.064209639357708
0.348914530194635 -0.278635022696193 0.143377005493189
0.849458528323414 -0.490524741790420 0.397307378363405
0.626152240031475 -0.269742482019295 0.000261019685641
0.850801125829467 -0.551468136877141 0.587793531058069
0.856363428013849 -0.262706093846035 0.078449019349694
0.350887443965775 -0.267446622914149 0.091236313512599
0.502604426930835 -0.586894930640830 -0.000407433800123
0.853501670021169 -0.534572875258360 0.156137620013424
0.387593379701326 -0.279119599823141 0.598816597153286
0.639158763347832 -0.524013639556184 -0.000927949628049
0.394768648916927 -0.195039430435616 0.326046855140425
0.350522165146182 -0.330564634266637 0.269507328412138
0.685040653968089 -0.467873847631312 0.599367841224128
0.657733580630855 -0.356077222607726 0.599308481966170
0.788447101299673 -0.396150093790214 0.606113371258450
0.541588619400145 -0.465626898490765 0.597634551171918
0.354595837803428 -0.239329095738851 0.412323616447677
0.367340306308675 -0.488675728366483 0.604231566506148
0.851543530684979 -0.553515083781070 0.382227717121633
0.564026387100156 -0.597880840666238 0.571725035751722
0.651175728009623 -0.605080082257442 0.434814821853645
0.853080753185946 -0.591527914608284 0.249763984554514
0.847029601454380 -0.375076278174978 0.451034348624764
0.347739977500650 -0.475727040705347 0.483830440834699
0.788881339893807 -0.204683714021280 0.196776958248984
0.619868682800308 -0.318916243992377 -0.002012433702494
0.646414956715406 -0.599919742732821 0.262886071179235
0.823166006866517 -0.273211826123574 0.603356568533098
0.353933906348578 -0.294641648635474 0.176684738279120
0.847872046573929 -0.421664530450378 0.563707971532054
0.350765316774761 -0.413526460620411 0.348745444622832
0.350499088183272 -0.342578027988920 0.209251793273593
0.449064685057540 -0.599538480941407 0.251823254765143
0.394287041913871 -0.456712280569630 0.001889084706315
0.502356985767028 -0.201593466462143 0.086285842511221
0.740034503198632 -0.599903946789782 0.046451731613920
0.848767947394070 -0.493407532065740 0.196420292664327
0.845552624196228 -0.554115461940488 0.275704655796292
0.853952335633598 -0.510763334171743 0.224461810732346
0.689491962582763 -0.598481323092386 0.603752111547373
0.658027929761427 -0.201728488006206 0.351500739721848
0.345748540902787 -0.327849261594655 0.083356614666396
0.506814432362524 -0.599976024208685 0.127251219200541
0.802236684445964 -0.599767285495071 0.071847093113599
0.851024726116962 -0.421449202538988 0.313474898635959
0.606822827036758 -0.603184189342336 0.054850648534079
0.824656405926012 -0.497864516078507 0.597805927525702
0.345630020761245 -0.210775891264402 0.267917147389074
0.685857576948868 -0.532508425342938 0.597375282073563
0.346187775414768 -0.219553606456340 0.266156687251037
0.617154601907275 -0.457838491161943 0.601637273478162
0.504196856141617 -0.260379656571171 0.000419547081412
0.510535499444797 -0.200512170279657 0.475777728432301
0.353917224075100 -0.379777905608659 0.592272839942238
0.651337380567319 -0.200484373802635 0.319967805994682
0.348543213530409 -0.423891308957224 0.349838178816175
0.850958615645136 -0.247534226099903 0.571501589215083
0.564307614291669 -0.605253794810138 0.242859955864670
0.847550624326552 -0.492680619681081 0.336396751320143
0.355516014078787 -0.598315800038235 0.229241419662889
0.835987243488694 -0.385688263141200 0.599604135594886
0.767616681899424 -0.593798470652934 0.046380989198612
0.849484376968500 -0.353158407029159 0.464761286678491
0.761724195208068 -0.605237367792100 0.596212304348115
0.759207784105723 -0.576259298196493 -0.000660075262773
0.850811873685542 -0.225950943146659 0.481850221717716
0.543651392642763 -0.205118118610573 0.143266886715796
0.627780370540807 -0.521618836831164 0.599017555654579
0.399146499500044 -0.327465500413046 0.595763203443868
0.347141181449925 -0.214976548160578 0.026334330165563
0.851273652892474 -0.200098717055900 0.277819888100787
0.746984376879198 -0.599974144218883 0.600626687102692
0.583431656664640 -0.377222631005615 0.003442025522418
0.594532108177088 -0.415937017160023 0.597470031135541
0.564660347886509 -0.236401835499357 0.004901154060163
0.499733192621052 -0.598294881706678 0.431711605337903
0.618362939819721 -0.548582592300513 0.000776456881326
0.373519184006788 -0.456345871916483 0.601077448019304
0.844123600065437 -0.234780712058008 0.005482580916043
0.848392582160428 -0.429384191521803 0.436233001100569
0.810290850815008 -0.360734141613354 0.599552650869183
0.351535499381384 -0.315908190161825 0.336277043925071
0.851176348013013 -0.485680792313617 0.241579880805026
0.465837492479292 -0.599867985968821 0.353776955786177
0.349389504442271 -0.203092752647490 0.458975634756396
0.851220869712552 -0.290773398622983 0.073787593107403
0.468544299553459 -0.210099775908351 0.000739087882934
0.383865450359087 -0.599549406055307 0.146784069533167
0.699880798826781 -0.421428285482268 0.001242577182511
0.503598721956107 -0.592204218128616 -0.000669652032008
0.460293327233561 -0.198640092353792 0.331192421826502
0.349551510858343 -0.300545563178970 0.228691610469826
0.348679603433260 -0.329737172768805 0.147944095020364
0.595828232868268 -0.598170370715196 0.587375304291742
0.822888669128663 -0.601044910974038 0.254097958514432
0.685683495443848 -0.201989267482300 0.250109061073486
0.797168982437171 -0.196333592821478 0.279905254987663
0.348924810465277 -0.522266473923328 0.064547527197223
0.494718607939728 -0.196816895560492 0.236079163855647
0.849164872190846 -0.556733285399921 0.202029736187890
0.502547926214478 -0.417651489231098 0.006117393527946
0.850775419900427 -0.210736334209388 0.514383264769832
0.835706271789226 -0.198865920677955 0.116282072815843
0.848470830536657 -0.297328361981284 0.366218719614407
0.615849677499211 -0.583276958186280 0.601586992917760
0.350149739596348 -0.286426601046552 0.196580473004108
0.847524972363492 -0.381000793521563 0.284682055816933
0.350483261873602 -0.597433139448032 0.042469998423875
0.605228907250771 -0.381773470246137 0.001364581090505
0.649174843748242 -0.475341846187857 -0.001923251503118
0.354706525843287 -0.496645754634771 0.593377346421025
0.448244775516614 -0.346311361554161 0.601132971831645
0.855031367799170 -0.490248973929771 0.143573966809031
0.849193846828049 -0.353309703177591 0.061979821796948
0.426961291768122 -0.196511102652422 0.025556053017730
0.351958933905836 -0.311926032582660 0.053338672332343
0.562424774358977 -0.329177700182560 0.594921661896048
0.528050515045769 -0.256230772391514 -0.003190044733737
0.847065289083920 -0.273518131258981 0.099475648812572
0.350734282075681 -0.406682908218134 0.238691082413829
0.539500607571967 -0.198926245756119 0.213394536257881
0.788550035211960 -0.603479829377280 0.391975051500951
0.534160462076101 -0.529541611394121 -0.002537755150183
0.783647500492447 -0.220445851713742 0.000362394743500
0.599535460658550 -0.604370620124963 0.438832425002105
0.349313492319886 -0.514455840654795 0.566212502373403
0.664221086582954 -0.486743187775298 0.600055553936354
0.351506726957981 -0.488679567196385 0.351939722832506
0.424342400142149 -0.308599190980663 0.000110947464112
0.850568446758663 -0.569016906560103 0.427114821181412
0.473390347707713 -0.599448167922440 0.015930207127637
0.841312087408624 -0.305458288216047 0.591201482691177
0.762078246730562 -0.205893904273711 0.561686695332347
0.784664462351141 -0.600930923367262 0.070152835915487
0.483627334467117 -0.388826936970491 0.602017071636233
0.680672194302960 -0.473042038092390 0.601970246291610
0.463679494768402 -0.600238279939326 0.529642373370319
0.354177766860152 -0.351523913530609 0.422398405504667
0.797077029872459 -0.506453311901658 0.002341524181907
0.369633304712301 -0.586584728305483 0.595857918999656
0.847362086414706 -0.206102452679690 0.177989283845172
0.763161244516315 -0.583651396859456 0.600039552698801
0.738570989414713 -0.547830975744060 -0.000083117836577
0.694696590238866 -0.596676543895115 0.375617928054960
0.352826730216167 -0.294853126010814 0.447171952628812
0.850242870457468 -0.597410978326103 0.275233419507177
0.734514509604576 -0.194955031642810 0.357414304520236
0.524262434067054 -0.532730972228565 0.595372135132855
0.658000133635849 -0.602207694717666 0.188525009917424
0.513842992454554 -0.317888029902307 0.005420247179699
0.834819549742188 -0.597020250680197 0.221704367661905
0.348041762513713 -0.233492580680424 0.202885648515038
0.630669967578256 -0.521968173361023 0.603078274987469
0.347549809143810 -0.286185323653080 0.359290715669252
0.351779596161788 -0.232638504300398 0.489804381156871
0.469943603104101 -0.203743178075568 0.283536677708606
0.856351104192485 -0.365029160377658 0.067375294406376
0.594348168118290 -0.266072784009148 0.002208264800456
0.732493057754213 -0.603709217664980 0.039358767969810
0.538377785318013 -0.408464233922514 0.600697877408111
0.347557760879717 -0.314374503290253 0.157581971089791
0.550396329833836 -0.222840601571931 0.598374826959543
0.401830344896531 -0.601332013409592 0.441940676108914
0.402778603391902 -0.204028470769132 0.337119024685348
0.406788888496131 -0.332435954043144 0.001192946433676
0.364945245688594 -0.202635598448051 0.320836077725383
0.618871264086218 -0.597984354028723 0.088636272637581
0.846340622201549 -0.327838528162475 0.426080484293948
0.346575059996412 -0.543458678034307 0.293030587516127
0.652432928888632 -0.347287069881626 -0.001038306977709
0.645929306909943 -0.584349633039892 0.595210152179559
0.424050061853242 -0.604213121021969 0.087765119095987
0.550311158162925 -0.364294714116166 0.003767211415361
0.726510583807913 -0.195832306224634 0.279864949706383
0.362675170606040 -0.605495215350128 0.135310851520343
0.423563851456272 -0.202533685470708 0.145532577144594
0.848194214375452 -0.599689157679573 0.385069144692219
0.349763591264256 -0.311839330316353 0.031149749257041
0.582633595193540 -0.197528296269998 0.256838643868699
0.670065605367016 -0.390737807599445 -0.002879054006023
0.848518030820340 -0.262476545856832 0.186202488382807
0.858803852541614 -0.268136050486934 0.494388990641070
0.845242166598389 -0.471302343071383 0.033488368921944
0.346559020879419 -0.399089594679323 0.518847270712963
0.670151519452519 -0.199391860916380 0.433176771212900
0.849439971669165 -0.573960815874263 0.268134392691599
0.822263427025436 -0.596990376348498 0.553699897228000
0.567921937495853 -0.602034678949637 0.419745138503405
0.535715668730478 -0.226294679603482 0.596428993520271
0.799423484421729 -0.408641255953795 -0.002470490402889
0.406435643519707 -0.596456725107185 0.274352894370866
0.843964237176194 -0.580473488212943 0.316648383372619
0.855352117061729 -0.325647698282531 0.038986390447320
0.546167260711278 -0.241722590176551 0.602980723988785
0.736675413112451 -0.596060891505954 0.398302968795356
0.854932067894575 -0.569073692275078 0.369761564505114
0.349653958136227 -0.443805105401098 0.553418420599978
0.471187115534555 -0.197857688487802 0.602944320308957
0.722401789915410 -0.599885481780802 0.088449140532926
0.464094161447343 -0.601817730680818 0.450139419362229
0.349266517567439 -0.418179438027157 0.349598544734192
0.762856744374802 -0.601531243620700 0.279496204665620
0.808284000184964 -0.209342006423788 0.598460858295147
0.713156758677905 -0.259025473671868 0.000391818216792
0.563225334179412 -0.318520594493727 0.598463866332253
0.639711285406246 -0.600580095907095 0.228553689882265
0.691140651929981 -0.328897395165356 0.599158513778700
0.788676519394211 -0.197301534248746 0.314562050621959
0.351443888754358 -0.245796321863956 0.146013828757369
0.815599936775063 -0.417918921527046 0.003722449425771
0.753798748017583 -0.602093038282284 0.127024616229135
0.423743470431157 -0.599883271591927 0.303558187109623
0.721782226654382 -0.311010692422809 -0.004938678009908
0.754864433076157 -0.585883210086018 0.001487146631775
0.788201095133997 -0.602776886925301 0.462576640421927
0.850529496009905 -0.234295714761246 0.014460102802366
0.602652194978769 -0.196153925358685 0.314023980846033
0.672048677707068 -0.370460548901476 -0.000971945553278
0.351430515916659 -0.599269408619762 0.456383461480504
0.638218226979927 -0.292062843013769 0.004940554441398
0.848281910769195 -0.406825953352696 0.251271891708916
0.828733512970829 -0.601182282701262 0.037889992856978
0.796643511157187 -0.599516880752600 0.411137681721263
0.354919509932710 -0.282373910357456 0.308440200419509
0.381494913061112 -0.464783474135636 0.006130375930960
0.553569103041553 -0.592321204114010 0.136203598670784
0.351793450809217 -0.327321669667698 0.077042494394749
0.368797387551707 -0.200411064735671 0.172813581808746
0.467612207634818 -0.414198120225713 0.600600452424066
0.350748900740614 -0.243105214568990 0.286201140927678
0.415688059739373 -0.370748936732630 0.001505510888338
0.845643695281321 -0.580072897626245 0.217405306796196
0.346645675745626 -0.368045056422839 0.550404927351759
0.846527280918482 -0.219532771410524 0.305610801636265
0.850115644426387 -0.266548778764157 0.254921641451228
0.349421539963397 -0.211403506552902 0.027131872783365
0.727076539879905 -0.361050212544414 -0.000601053056486
0.853285820892676 -0.418722081011414 0.361748061333508
0.351162200734568 -0.227073580878796 0.345998969822268
0.356772381347384 -0.430723908994095 0.533871803845346
0.526112008961501 -0.601378084317170 0.457567780550323
0.573532445060320 -0.253735548996472 0.595626962478393
0.754756414866162 -0.575207540387819 0.598644073381775
0.848945510159116 -0.236672908352015 0.190878712466485
0.527338873523158 -0.600546392057980 0.194178080726951
0.580391194972687 -0.594624506409167 0.393875629699677
0.796543616860701 -0.598684961918304 0.272970876950360
0.374670296210943 -0.197407050635846 0.469440209166645
0.742473491132408 -0.442026751648799 0.600357135420942
0.576786050020554 -0.200204904604465 0.134758908138780
0.344526584004770 -0.453112432950595 0.176954176350640
0.342316795887214 -0.416892248647363 0.108941723773754
0.559581672038886 -0.199905290015908 0.118307616383689
0.344393270100254 -0.299514868927850 0.128729303009201
0.816164941488010 -0.602010073463343 0.010230961729134
0.599640504964858 -0.312076301785896 0.002277465658846
0.767441184129162 -0.599570587171288 0.236859459044365
0.719225436027398 -0.199392138791447 0.010916034064738
0.514681162507313 -0.452550007913967 0.597577323390597
0.645593545504116 -0.239704898891532 0.597695488040314
0.684211625665103 -0.201983197227998 0.310869517789775
0.365532053327357 -0.601502627956111 0.595125855147974
0.552187970391939 -0.386010932709201 0.595436979929305
0.354324677166829 -0.201178674242186 0.580619882643900
0.669097511346661 -0.198746377596396 0.120430588699115
0.849774536993467 -0.471180630018332 0.174977499551870
0.474590272308708 -0.317048076650362 0.000627896100008
0.849472382632477 -0.513191070925983 0.593226440934263
0.345580887689830 -0.437557005000072 0.496221481875733
0.441762980773089 -0.198992308317856 0.328907356341304
0.418396503099904 -0.573050818952690 -0.001708380974923
0.536041647781808 -0.200712110841373 0.217243437697366
0.658568759109098 -0.567096563284946 0.604128277679684
0.423718515163188 -0.479027188629386 0.598402237553071
0.367597928695143 -0.605130544621135 0.158643974552389
0.374083753394094 -0.445275570422982 -0.000310659589224
0.851584500002367 -0.490153201449966 0.505798743971949
0.442796324784188 -0.535132241068188 -0.002469209979306
0.621846203976309 -0.476431368925385 0.591208140795578
0.577633771787324 -0.498262174073905 0.002957873624388
0.517667229904378 -0.476195019205463 0.596496628132296
0.763404380270196 -0.447335192483688 0.002255348405830
0.350606152451743 -0.398982845565189 0.146702549786597
0.351048335880531 -0.563158536083199 0.567474008146207
0.346270912818890 -0.483182520540140 0.248143042100485
0.850454929097639 -0.208032837373233 0.070072828372816
0.839442253713209 -0.414759305427022 0.602786194936568
0.846094300766843 -0.502249245744557 0.107073253810960
0.850344372150358 -0.533328475652007 0.133411845229327
0.596555564108345 -0.489892120036967 0.600921454244678
0.592263659561419 -0.550547053787066 -0.004971771382237
0.555433726038558 -0.311140354277485 0.601661281711978
0.615092060363100 -0.281840684773534 0.596384103727658
0.463786903183225 -0.598588826708943 0.238198639043830
0.403537700880456 -0.322639594192177 -0.001640506573757
0.635704234866696 -0.199094736099609 0.235829078376429
0.813014133584308 -0.538056338301054 0.001896794389319
0.849975785059330 -0.540281311540371 0.238257836978539
0.704738506200458 -0.376719517012663 0.602048750609702
0.574484465792432 -0.598717434570957 0.024198475483988
0.493341294791205 -0.597100170811680 0.394709461110686
0.776866983995305 -0.301468400219543 0.600361630528479
0.580297669327433 -0.253456497783578 -0.006245781299436
0.639093188182088 -0.561629296686356 -0.000335954156072
0.350126353788093 -0.418229281756427 0.003817533602443
0.353771281424422 -0.562814511329834 0.040783028933129
0.847041953755217 -0.359974729188438 0.558115711183277
0.854710233455515 -0.430171896880153 0.458676974928830
0.349618122308546 -0.560302704998523 0.498647444149605
0.649006293296424 -0.396106939263550 0.602974898847261
0.363804099391972 -0.202328603919596 0.315890365122915
0.451152543976618 -0.481125179325435 0.602139246026029
0.741875461398148 -0.194091554693193 0.505243286069743
0.364971810244713 -0.602688001991838 0.496444631771434
0.844857013569201 -0.342279498893465 0.236531637389193
0.825260706394803 -0.465692079834449 0.596460005812987
0.430474014323919 -0.303348677236665 0.600246333085514
0.349681997080088 -0.430249839042025 0.011855982725363
0.351518896203894 -0.371774699797941 0.514066740100381
0.349998044451304 -0.421523002996137 0.261463603289291
0.662371650793680 -0.421338271601961 0.602594760487002
0.553962662159952 -0.330029279545450 0.597437603320890
0.426070800986033 -0.602081264731196 0.387994605008576
0.350306853413412 -0.565269653693912 0.159504787713103
0.348404973378674 -0.302597827713766 0.568406501522411
0.850199958790287 -0.504419392520759 0.595306279202264
0.849594934624189 -0.259555550961324 0.317034133017610
0.347951369165352 -0.301957363802392 0.341147766523995
0.850276099231535 -0.580064171201478 0.333597895456147
0.447709145460546 -0.601947847342495 0.293770247604588
0.497854925084662 -0.204066531282421 0.570914366850300
0.650073769075603 -0.195388685157819 0.149253592415095
0.752484412806318 -0.597002215466893 0.063589611409090
0.377741875911492 -0.604536334173628 0.561622248275665
0.472301190640576 -0.601636888097493 0.128107409701913
0.350804454290369 -0.447678035199881 0.448478927547564
0.438128293485905 -0.521742864731353 0.596574899200461
0.621506431849323 -0.220414714188076 0.002532265436075
0.355147739175339 -0.408157717152029 0.473648885378058
0.853967296785597 -0.474215537397786 0.550452967572642
0.608289878702453 -0.217048986165556 0.000796444660064
0.527798981553930 -0.563697872596919 -0.001600824909024
0.850673678054496 -0.461626565743125 0.259206652868663
0.848761262660188 -0.491721678537341 0.391836673627497
0.618317971755782 -0.269012675823450 0.600528121545175
0.352445957880277 -0.420683133071959 0.148111075556293
0.448285542684850 -0.233741880103637 0.003737919321338
0.347977321292611 -0.599748375060569 0.132064127009213
0.422976073651995 -0.257608488870872 -0.000224332258886
0.850215455153736 -0.581680573599857 0.308339183538061
0.350519847710487 -0.423490370532188 0.308348752393791
0.464445410737213 -0.453401524937845 0.002110604507564
0.351774770404412 -0.430966240165233 0.058276742833480
0.853774028626373 -0.469190581881545 0.209307608643170
0.613706762283438 -0.430818536038147 0.001326061360032
0.852261226966953 -0.313997224386366 0.291683503208272
0.851281181289400 -0.404682875262932 0.447287327538401
0.355275717503654 -0.577043189831735 0.216402640176970
0.360172130340163 -0.600939495531352 0.246971060490126
0.455435589356582 -0.239902870629238 0.598182754714938
0.559895136761112 -0.297975231366851 -0.000061496436028
0.373048228954508 -0.600710495469461 0.010831848569721
0.512109252564686 -0.204117419563099 0.490939844168130
0.791416588507553 -0.201185827625720 0.594810362186123
0.389035773242448 -0.225288078917380 0.001658976766881
0.830778916707799 -0.271231349783432 0.597058614665676
0.777264408240972 -0.353727637489306 -0.001158089152767
0.768927090240779 -0.483075817337974 -0.003437092173574
0.356837802238365 -0.247451246273133 0.394855647842109
0.392133544432833 -0.598872945834370 0.416425059597322
0.426458543385195 -0.602330423179753 0.172183273613625
0.850730211766608 -0.550073495750298 0.153444656707788
0.848312459106046 -0.556012798052855 0.235563640283619
0.517304340252518 -0.345013778937529 -0.003379834892812
0.763864245713411 -0.597537198420376 0.178282191442943
0.472785517096732 -0.600965204133714 0.334262389778524
0.469051779889600 -0.594515728543527 0.540212439270740
0.686813587881183 -0.484805690395344 0.600938899455417
0.851513554965961 -0.565765296378298 0.577047064440989
0.527082344290340 -0.598485915270978 0.279806067930633
0.496382312764003 -0.194254603041876 0.063739243270001
0.767359819011290 -0.574439705404488 0.002626572159753
0.610979995162287 -0.605723727975378 0.202793542927774
0.675316577377893 -0.495921917604032 -0.000811728109326
0.413870361588630 -0.201084243399058 0.503911757168100
0.814275412638853 -0.302548481730708 -0.005129615383691
0.507208044143669 -0.248399332112781 0.002020425899409
0.702551123390913 -0.602082202009673 0.353556342142207
0.831540310185877 -0.201354886115547 0.263096298329089
0.599425420314897 -0.204469112204390 0.155471803810992
0.605792210693022 -0.375441435359053 0.597727361888725
0.407184976200174 -0.597853375808589 0.372890638287051
0.544894571514488 -0.199166537843078 0.237063452184144
0.775698484630879 -0.596297876714833 0.560589860002044
0.419760230686768 -0.342866747087950 0.596353019460070
0.845932600910125 -0.231339629294531 0.498921969773570
0.851030591478117 -0.334908979533406 0.380221065784211
0.851014312852147 -0.428898255807192 0.188250455757026
0.351993801399254 -0.377234668166363 0.443971353371952
0.423983172428479 -0.201316191186640 0.137078791661016
0.462122878139779 -0.360840051761178 0.602708485635347
0.494388720566125 -0.197144219642618 0.243696106869075
0.852132850444857 -0.446375458784847 0.088372967062419
0.804401990331391 -0.199383667843520 0.247584552389539
0.532978457811133 -0.480611791262018 0.005173700973842
0.612490120318369 -0.199513660538717 0.069775106229654
0.432316427126134 -0.271993666356383 0.001614983589237
0.851919700698496 -0.307845813665398 0.300576451103479
0.345362003292915 -0.373215210144867 0.203068216095763
0.569660158963112 -0.397148744050434 0.605273417166679
0.818779801299650 -0.600702910560800 0.454462368688143
0.791469364075914 -0.592305174200670 0.600742893356658
0.676072314724160 -0.386664218646229 0.002822495739639
0.355368495793671 -0.228192558183228 0.285676301603733
0.630641787157579 -0.243607648627082 0.602723673224985
0.760907836983465 -0.600940032581664 0.331614821351544
0.556741352081405 -0.545039757210624 0.002143312557597
0.393831167522067 -0.200725908830024 0.232884310506180
0.853089992406528 -0.202718441736979 0.372797783629249
0.434803507593853 -0.597984345395335 0.025408682844012
0.472059568627015 -0.246119589111730 -0.001597822431075
0.850012562484174 -0.532783374481982 0.039742147505013
0.346324285228722 -0.467052453744337 0.012144272322401
0.347018153400279 -0.486560643700117 -0.005459866970700
0.655504337827570 -0.323819926074402 0.598868190841705
0.351452067058856 -0.198194623152461 0.275510521028977
0.351210394624062 -0.574817767820680 0.060511301876368
0.736532736363535 -0.598972268959890 0.508721346814235
0.849302003753520 -0.547673920200714 0.123966085816961
0.350680922939635 -0.590867943055302 0.193281034220468
0.663422016823265 -0.200834771899445 0.102114781193437
0.791258940663311 -0.201518713636804 0.553941479517281
0.430247517604409 -0.201457644392231 0.454472722951735
0.850464668671623 -0.463035269901934 0.438278985497123
0.434537670935379 -0.195663915600857 0.024055821976201
0.807190224123849 -0.390197717495810 0.601455331855052
0.484656710157321 -0.200191117673202 0.342312002207213
0.569148598929273 -0.605428971241648 0.226368513046135
0.853093005904901 -0.244397350028371 0.194897865874366
0.845598574883307 -0.374913279644919 0.512335995813022
0.818043026054094 -0.591096912426232 0.000375291262983
0.346665695427937 -0.226521938215965 0.374435187869209
0.585108604527656 -0.201986515160549 0.250300121291819
0.643569253680533 -0.333125130964261 0.002714926653290
0.467423296632329 -0.517139672656145 0.599459808266248
0.845184416445511 -0.504090398903651 0.593791623464251
0.485408102989917 -0.370080388360106 0.597024253217793
0.846644106639427 -0.290427120167249 0.595271645720468
0.506104057963723 -0.214693251526933 0.003680651473288
0.501466413950245 -0.498877294824887 -0.002901291198734
0.348164850808571 -0.556140969734846 0.056019165243034
0.623527980398085 -0.366257772035379 0.597906330523901
0.471308906840020 -0.198210152267409 0.257730594220384
0.426081536490145 -0.294165570085226 0.594457271960687
0.848923380058528 -0.514406787123836 0.315058865098486
0.474301000698859 -0.603790312683347 0.306956767405897
0.847799667281672 -0.398297881582476 0.391575300864448
0.544373112332143 -0.601166745428148 0.076198544455295
0.344021099414136 -0.573485742272671 0.404887519465041
0.615839428979309 -0.205248425948528 0.297712289478375
0.740388169904596 -0.272035655351380 0.597204608278273
0.638354199806689 -0.547469304082530 0.001279700755379
0.847145251584949 -0.215551445709598 0.178978292376440
0.398698273890831 -0.224108509837573 0.000757628387345
0.762984034499470 -0.205396903902979 0.330285153872373
0.600300668516932 -0.230033843042636 -0.005307410276130
0.607080993861927 -0.598977153501325 0.415884912460115
0.608532797710190 -0.231966258177654 0.003642301163944
0.508335867589784 -0.604499312139654 0.196663966084510
0.507610641401861 -0.604862890521341 0.053549777624049
