# This PCD file was generated using the MATLAB® pcwrite function
# from Computer Vision Toolbox®.
# .PCD v.7 - Point Cloud Data file format
VERSION .7
FIELDS x y z
SIZE 8 8 8
TYPE F F F
COUNT 1 1 1
WIDTH 868
HEIGHT 1
VIEWPOINT 0 0 0 1 0 0 0
POINTS 868
DATA ascii
1.305090243273708 0.058161339228363 0.056869414033299
1.316906560524282 0.113466943572393 0.184116397512074
1.270547477896158 0.083566613767295 -0.092962432963467
1.108442451389370 0.277170475636303 -0.019145075615584
0.739777502994413 0.054529904973422 -0.194649401319991
1.282092859688442 -0.191468524847882 0.227540420980723
1.239415991950860 -0.167598066507521 -0.036182998183761
1.326885899177988 -0.078636997564265 0.174640255924471
0.746628827063548 -0.151260467161236 -0.035753645222925
0.723705969042692 0.022302554844234 -0.116084934714774
0.729611757847471 -0.137140622080596 0.007916759262404
1.258814668314304 0.094176984216326 -0.124210185588955
1.269177355425837 0.226245874833962 0.260071991875676
1.246357773703858 -0.107944380226429 -0.164958169269833
1.043973778072568 0.340418557808874 0.226498161249304
1.067350481026800 0.302588907904775 0.042757937665762
0.704933886797006 0.026769371146471 -0.029319224715283
1.307262021784622 -0.146809231278138 0.208176590590717
1.169914105657001 0.196808084644399 -0.216481452701220
1.219902627814439 -0.208354966893790 0.000840215746172
0.863306705111681 0.222167329925828 -0.206707830647440
0.927093167180384 -0.259992741461173 -0.161130283069652
0.747593601417496 0.198569628173377 0.102803790609276
0.922897021428969 -0.283840087152062 -0.039272892473210
1.154629897975975 -0.291744111486262 0.154195460253842
1.170609857288773 0.229014165326652 -0.087194541927250
1.290795766750597 0.134485968937209 0.090048325815146
1.259917862621659 -0.143327046808904 -0.034778319816448
1.272333702694481 0.131374929822719 0.013988978732819
0.719627656465738 0.108056170232507 -0.006485142220711
1.075420968712054 0.263873041607636 -0.141099221829520
1.122571775036388 0.286345100427618 0.055421258583222
0.926600255325691 -0.297240138103381 0.037933277819404
0.968802047116627 0.339895471855827 0.212145739760587
1.087532016520541 -0.267365052780432 -0.111028810326629
1.126671881721330 0.298813830948621 0.122270497671637
1.143983621270602 -0.243529470569939 -0.100233481537971
0.775415439522553 0.263377794111691 0.233586147291033
0.827232931671177 -0.244187930747350 -0.005996032253829
1.224694905393070 0.160026324421943 -0.133428287027212
0.851668145498241 -0.229433744808512 -0.145193415322266
1.255953599970248 -0.165993667749972 0.018054808679029
0.859524407293577 -0.302746526399895 0.164362543757179
0.721003774638417 -0.097084074845205 -0.036512263649829
0.863068830915486 0.235635352813831 -0.141985346190070
0.706253153030190 -0.184031403378424 0.235061751922969
1.203907065066533 -0.264155082553108 0.173650019146337
1.316208425833153 -0.027891403192631 0.096554109540436
1.105959804420515 -0.263580079749838 -0.098498699750121
1.127981405305553 -0.283299055840184 0.063129842293419
1.314214323937433 0.083968383527522 0.111512824198129
0.992107926735417 -0.293459492739587 -0.051523379517331
1.142059938897264 0.280412734166843 0.070434204375211
1.202997113440204 -0.178735682201717 -0.175011704484741
0.970634071608368 -0.295349855267516 -0.010799447786459
1.220288939457123 0.206577940822221 0.000220040290637
0.780563048019990 -0.173304849018907 -0.112043904092555
0.735268477686481 0.157672874688811 0.036755527252685
0.691824945558019 -0.017309732169444 0.034593144359617
1.279708939431764 0.016330500961574 -0.116091792502305
0.722435509819712 0.047869770219212 -0.097912466040445
0.707847940838180 0.009056383283574 -0.046104102774976
1.312072030658344 0.121609681694535 0.176167492060123
1.122670480447669 0.270366280430463 -0.024717717182767
0.958916464762628 0.262084530189550 -0.197253747088749
0.921265949864777 0.324842170777332 0.170923591266678
0.854690366456731 0.229532681081624 -0.169018131257753
0.716117463279766 -0.051746397252951 -0.056054712771310
1.011645277344278 0.321358306378382 0.104444756607673
0.907499805510096 -0.276888286031585 -0.058950543887842
0.780878297736151 0.252652897823489 0.178401647376358
1.315003465327409 0.039264019258695 0.079527800267790
0.696370171948860 -0.115641709926954 0.119484813876663
1.042590740971615 0.329263712335802 0.143610936316451
1.247500066091737 0.145778160358710 -0.077699752303914
1.137968903062520 0.273455054609373 0.031213132583923
0.853104567610139 0.292530825472114 0.149872064133287
1.327208677658289 0.084467973718117 0.189486079260031
1.277679170227814 -0.137699157881082 0.050705286983235
0.996951611054090 -0.268820779038295 -0.166178601957474
0.746314752550127 0.126313423322076 -0.093851868940577
0.996656088560846 -0.284111182264023 -0.091794820377274
1.055882173624767 -0.258344847680644 -0.211854478273902
0.806322415194377 -0.205710568086631 -0.101942832012416
0.876852295155276 -0.277190078794582 0.007551742943052
1.041239596682387 -0.277772704548846 -0.113538307318717
0.876702304744991 0.290714045585053 0.081054049621010
1.178548288307971 0.193190413590325 -0.201682974052171
1.090214937843783 -0.325771652142724 0.202616010320529
0.728137060205350 -0.036775565541447 -0.144825273837898
1.046634013398190 -0.346393783316964 0.259120339927083
0.698102139243863 -0.139592053552820 0.168111326200897
0.942032437361835 0.301462495621889 0.033478302822351
0.764260789128071 0.213264697955184 0.083013183349599
0.931324869898828 0.307505337982472 0.070816196186601
1.008230855705037 -0.302203525493756 0.007097558005354
1.058172620851009 0.315994118074537 0.107816162329585
0.691809860227771 0.029309790847251 0.044358709686582
1.205327132181219 -0.250640913970926 0.126180733847980
0.697020899139682 0.172084569755427 0.251886379135181
0.997370806243673 0.299246302258561 -0.006539066227887
0.695535650302201 0.117892956500415 0.135200787185195
1.250429802715779 0.145246961973140 -0.056572214587090
1.254932288464963 -0.133019356575204 -0.083964064780741
0.853875478239486 0.289038066693471 0.127078612379615
0.838149662211129 -0.265719087122069 0.052396171184184
1.210093964565548 -0.168450786516551 -0.167680255253376
1.025947784046162 0.324150813472870 0.132727185924118
0.735357020391260 -0.032576741583406 -0.189972108989866
1.305273899090121 -0.106683283231452 0.112476523565554
1.321818348658288 0.052586620864444 0.140136926800460
0.790725203287962 0.197037298065877 -0.081512423651951
0.964443980535746 -0.294507796321212 -0.021329743030079
0.773711269158464 0.244023541412358 0.170133974713139
0.958928953543672 0.264671026897762 -0.182492195241461
0.842026525665966 -0.275999487656899 0.088155150267885
1.336737275739547 0.040029588269680 0.216054116486904
0.725992514515634 -0.088628195673906 -0.080205377783374
0.806508786384143 0.260141228619786 0.126006233712006
1.235179007327568 0.116628112034238 -0.211068586200653
1.272530961218192 -0.139120067077721 0.022995480335489
1.159336540371154 0.231161394087081 -0.106456307607699
1.318275034229469 -0.041077031201514 0.105812935589027
1.257962226483839 -0.231442775058827 0.248781163321143
1.186260367737825 -0.198344433814932 -0.156679411764991
1.152716157703322 -0.307749955944446 0.213366895174630
0.768321920742128 0.145417781873983 -0.150869561392559
0.794304564741751 -0.268300415542321 0.194880619135656
0.783360671241788 -0.152748316373539 -0.184499014986135
1.119240556459082 -0.247905783623807 -0.149925201810133
1.289159114659691 0.011835585654058 -0.063759943141614
0.680450741742048 -0.119598321036496 0.203472706686178
1.178147734804021 0.271041997900234 0.113395573364728
1.277814454685497 -0.006007317059862 -0.117990033010764
0.860384432016920 -0.229865752445628 -0.169014070896989
0.828622504240435 0.298321730845402 0.231955736063455
1.234222676294293 -0.123480449220475 -0.193846380355250
0.867794343394331 -0.255867416448309 -0.069604991344504
1.253810255435222 -0.132584452639971 -0.071460967371308
1.205848429037751 -0.238671555705719 0.070178806008424
1.289539528432733 -0.115726650185144 0.056245963478254
0.683483837180756 0.014524592487297 0.082645270294167
1.262878315508303 0.085303169494987 -0.132102063000329
0.848632012837608 0.215047735773308 -0.190983667973595
0.724968911029353 -0.009074784426999 -0.133911007523676
1.145272080882388 0.219229054520376 -0.192044260287347
0.754615897508150 -0.141305707375364 -0.106714902460440
0.741769672198927 -0.092953591627444 -0.138878637835429
1.261904779322610 0.199602992349322 0.148140612461114
1.176336454236899 -0.263803868703404 0.090272639071230
0.737898123642852 0.022740246693399 -0.210166066029591
0.891445614655543 0.317710277539966 0.175766499922156
0.731072744504179 -0.046519706869594 -0.140557235243908
1.078453627194429 -0.335596674644508 0.231618496541696
1.226362865894637 0.225200219410064 0.095916585958758
1.216920746723562 -0.266521703073206 0.219159552414198
1.169568290005107 0.229710961483507 -0.060727354456947
1.115639272759569 -0.273223676764592 -0.017415532807853
1.247835357993997 0.131660803559273 -0.118101867631403
0.892348149177898 -0.246230864256907 -0.169797315609766
1.010473018895176 0.309445325964349 0.045030226874058
1.140166051690203 -0.222587546837535 -0.208182677498783
1.129236230252855 0.247467909455795 -0.108750843296038
0.725197443712056 0.041064403179586 -0.127279687436641
1.213030852189693 0.272095452730016 0.238591742000216
1.259643983483668 -0.069766030295825 -0.170597869040463
0.719328065781478 0.087968657526183 -0.047579707810775
0.735536003369151 0.195275466606448 0.157441832043657
0.769414925138131 -0.181709398005857 -0.037129707656494
0.780756272893327 -0.186756042206338 -0.067928125065522
1.136527987139441 -0.249732774836457 -0.085777672977534
0.813939503393004 -0.229152236337886 -0.031530057848019
0.961007160859720 -0.304151464666982 0.028445750225961
1.081692075693370 -0.279121442024065 -0.057143382712650
0.811889970214811 -0.262586087558970 0.115070414866422
0.901535315782743 0.300904438048938 0.077278098518005
0.675330323645996 0.119480800570421 0.246401862609756
1.337575846803716 -0.047082997035294 0.215735216381150
0.936683132878460 -0.258304860950736 -0.182968770471360
0.953107039353975 0.280156677461376 -0.097424909049735
1.110334791149160 0.264407719168328 -0.079398675792934
1.117461982859549 -0.249738687303702 -0.124754838122666
1.224314439873135 0.147513170265408 -0.173472850239047
0.928072982761042 0.259610601650986 -0.173129602665020
1.137055670181209 -0.320207063420075 0.258374396252867
0.888015295347756 -0.304811308952978 0.130877032181208
1.129730006646439 0.261864302390654 -0.046837239175992
0.905996717340809 -0.252107109815347 -0.168299958035148
1.320849615482216 -0.112777026043374 0.217568133871162
1.294763541938643 0.125501328917705 0.102357683734510
0.791538169772645 -0.185359001726843 -0.118836414570238
0.804103326662010 0.186539574348486 -0.158206754971297
0.828660507417695 -0.286477908159760 0.173522305152670
1.271049967093397 -0.108013733694861 -0.051845020546525
1.300554349992383 -0.112253689942923 0.106924877860659
0.793482860121456 0.268469138329779 0.195279602503950
0.817405593307630 -0.253303193939010 0.051319754501810
1.327647346564146 -0.006007908348106 0.150429865789259
1.164540066491013 0.270797292347070 0.087197674579199
1.114109167346536 0.273169238191003 -0.029398489230957
0.986406227284199 -0.335834616979263 0.179398081700104
1.012723361889346 0.332081310402588 0.158736671168464
1.071489338680311 0.343490220379428 0.255788711686499
0.953813761276495 -0.275035925649719 -0.122306205294168
0.725515358033416 0.107532716762713 -0.033751078232405
0.736949066457474 0.030054219108274 -0.191252539831398
1.168112491367296 0.219697262075533 -0.118825253805783
1.247609740135281 -0.174147089002301 -0.000056117405773
1.210640794412011 0.205785957915437 -0.030996528015598
0.739642654678820 -0.157394627761141 0.005598965092893
1.287287350142845 -0.121933473876557 0.067231417206551
0.770652594728169 0.138535803497214 -0.174777416411513
0.893254747796952 0.268165679266315 -0.062815652162999
0.772512260710816 0.189585477016886 -0.023187540934424
0.764164977870873 -0.128008700808602 -0.168833520661023
0.919713383244574 0.275263436332584 -0.082511239667609
0.999124254694196 0.281721535738372 -0.110601102294123
0.718979398781602 -0.126258430716718 0.039556826062837
1.069243365843774 -0.283995084386637 -0.046499126358613
0.713412081408850 0.121091506284145 0.053299051200857
1.336467059399612 -0.034994919437792 0.206106614617400
0.849471684682505 -0.266628768095761 0.032217078854909
1.009501800203942 0.302034938734945 0.006970858109913
1.304386869694708 0.172216624768228 0.254833307426896
0.748487492776048 -0.133892221868787 -0.086697630852100
0.895992089512526 0.320879794588081 0.194130446565884
1.105146337964201 -0.291911550347770 0.049998280148645
0.775313028824531 -0.139567623363665 -0.207266290820240
1.062010046917690 0.306775827972543 0.060772695574533
1.267833116631405 -0.094029091790524 -0.084783788741534
1.320466631312590 -0.027639478047988 0.097588577781334
1.161876538439029 0.261968741040554 0.035364085022963
1.018655701572564 0.289906893514100 -0.060255522312631
1.322108898545925 -0.034212369375414 0.133823860051131
1.215785475138737 0.182267894168825 -0.095590722844650
1.064869493354344 0.279935965826039 -0.074574803111369
0.851834079429799 -0.293532201302673 0.147018439175165
1.004552972239461 -0.327145461439996 0.145491004825918
0.809399646169931 0.217978372620121 -0.070186471282215
1.137457672706428 -0.247615118791082 -0.097827625960168
1.214629701988305 0.204489454729282 -0.035088496315837
0.733391203148499 -0.191668695102920 0.137161494378903
0.712096701476740 -0.121274033950761 0.061560993351445
1.263562055736462 -0.076479570668593 -0.149875323225084
1.269507596614019 -0.124295859794243 -0.031532137733750
0.815714842861720 0.188819503978570 -0.196678489444244
0.943122793474283 -0.297199848268683 0.019006525657930
1.114084412456013 0.260655116772303 -0.085494861441550
1.340387329309026 -0.030952851151925 0.212695013876010
1.257519167421238 -0.100014676580543 -0.130889071226046
1.133288740749864 -0.311675194844233 0.198972942717226
0.737375574954076 -0.159713389194671 0.031051990035212
1.258548720826900 0.057157109706505 -0.188937650733572
0.705558551134296 0.145689462572374 0.155288087491018
1.170631166539769 -0.254911675949551 0.028417972363402
0.773383301383662 -0.213213291270751 0.046140913046312
0.683194939957884 -0.054211557568518 0.109504399069745
1.241493261343295 0.115855514885070 -0.176975544781227
0.808731432785888 0.203819181848878 -0.119749968596050
1.259922188465503 0.233281804828980 0.248790325918889
0.916911427534659 0.296954707081984 0.036756854136056
0.748666153603911 -0.080214174949158 -0.207647328999747
1.333591784671625 -0.000235157501686 0.172083594701133
0.842932008101537 0.311732208341774 0.254440433364883
0.715168112978306 -0.105967911546408 0.008237135283066
0.777201706610574 0.256022868361247 0.188432002114365
0.933762829210042 -0.320015494071831 0.139685765483588
0.735718641611784 -0.007390460482268 -0.207777542669069
1.272343857218993 -0.065383936691735 -0.114887050556321
1.168345205908083 0.207810204993372 -0.189143000233637
0.885300869744608 -0.289767820021347 0.054861138797391
0.699806799249103 -0.129290691104263 0.139799317874195
0.898706058743286 -0.293101451563877 0.040953759233426
1.215908923287234 0.247521752922876 0.137492624213158
1.026886843156543 -0.325893560231104 0.131432214227765
1.067809066703816 -0.261368900343217 -0.167711033839671
1.128349422507939 -0.272871425659409 0.001692187160758
0.709281098718152 0.100528291461242 0.027516333135058
0.948184156121556 0.305043419189959 0.052728255433786
1.260373460658794 -0.136837940663826 -0.041720624479642
0.993434951130783 0.309537656290840 0.040255480465806
1.224212646191504 -0.172950727563548 -0.093271998422898
0.674130283929610 -0.091732230051171 0.181178292732044
0.691730126773336 -0.049283789820153 0.059401150745518
0.725366604490977 -0.063787593600259 -0.102569502518445
1.323338684529465 0.017522491417127 0.109950407756389
1.307738477644793 -0.160551104931484 0.239160172706960
1.195546589626572 -0.174621463525165 -0.212457656196398
0.714187441211891 -0.009870981626222 -0.087926970685100
0.871071224792644 -0.249226735285178 -0.105464429718563
1.291142077800143 -0.188336432782237 0.256432423840320
1.069411847264297 0.336398949625163 0.218993479749980
0.711318299044404 -0.075556408355507 -0.026285221369912
1.327883213537583 -0.117078670917061 0.236689869031245
1.098317079886017 -0.280475220411705 -0.022130448346752
0.919492777897764 -0.270696190917392 -0.088729320062149
0.740667314383012 -0.179886641413830 0.077415053969821
1.289573462829536 0.045387243891956 -0.036080518635476
1.201033703315388 0.253044732393858 0.113523548774080
0.902799067334962 0.305125337637567 0.109528276688503
1.183632686251387 -0.293789984474403 0.238795108398389
0.971783030305552 0.295362501781718 -0.016819948282998
0.767571568258830 -0.256559685984542 0.231565356689805
0.826369766574912 0.206449305536859 -0.170266615867576
1.297063040648566 0.157662749813111 0.176539064106909
0.963637817380482 0.329214123160754 0.166315881504071
0.713105369070600 -0.046978639066521 -0.059319325253178
0.710478721303919 0.125811591157029 0.091247412105427
0.719790926991272 -0.108972381260299 0.001530299224688
1.329629283439926 0.060278057122008 0.173059685692365
0.900137197218790 -0.245166404165083 -0.195510309526902
1.055480702049939 -0.339819879050086 0.231637705625059
0.712555728644395 0.196119574115532 0.241956260093305
1.227640496123965 -0.158780662971775 -0.128289480452812
0.866490491212626 -0.229335954359664 -0.184371838573821
0.779336177280102 -0.238176795768216 0.123637628256979
0.689537022851870 -0.075034651156428 0.087684412483166
1.268903014816773 0.031257431320008 -0.169734668026107
1.281839613559314 -0.158328457891163 0.122953508529316
0.744340193303779 0.144458512553555 -0.038753445629863
1.297186509257810 0.171036703342844 0.214708772564519
1.001324884882063 0.273454691278213 -0.138372549182910
0.693293845090002 0.047287093618618 0.048542025143842
0.834182916154265 -0.263485175865625 0.049587895176834
0.810387495832136 -0.243247527236018 0.052321429605912
0.955035271227275 0.318070040263690 0.104703987100849
1.299901468367213 0.073955976505386 0.036414037941372
0.895662671408636 0.246251969013836 -0.185723242736139
0.757169730622759 -0.143949908451726 -0.102217677450669
1.296406712421950 0.125523348559009 0.125157606018963
1.313537455191664 -0.090755189362850 0.136680453450336
1.118224629463562 -0.240785496553213 -0.184466938923881
0.791158644259656 -0.190429066334296 -0.088212044844024
1.238354047413002 0.111917117334372 -0.199375649143952
1.236068234263844 -0.159883980361567 -0.086086492854539
0.937776294045719 -0.262522088097086 -0.165383667597585
1.193644232835494 0.265168117210811 0.135471829825334
1.022238853314613 -0.295047248266597 -0.027300790202932
1.218558539331864 -0.265184020185146 0.221101539120524
0.801531171994225 0.206752007380611 -0.079482015915429
1.182466712860351 -0.221124143182056 -0.089975832907539
0.709787009361249 0.143419277064186 0.115555331725129
1.322650396576401 0.043164871978785 0.136006804814214
0.656162846148023 -0.064283187011236 0.256120903652211
1.032454637391887 0.318521027380574 0.096668006362412
1.264797057735774 0.136998290358501 -0.010981017975687
0.739017312755179 -0.218859190201320 0.214505041361054
1.236515404940130 -0.112307738705041 -0.203907635696562
1.152824113554352 -0.244332157554164 -0.073204661270142
1.259195957900608 0.209759960506124 0.167222166581567
1.071491367036993 0.286974839076716 -0.024023587990538
1.299993706507314 -0.035426358055412 0.006682563957436
0.731601863421888 -0.202829610152363 0.180426517002442
0.944203000816005 -0.297014539313409 0.005212440553040
0.733735680430812 0.166800284792343 0.062913391878463
1.169148544759850 -0.295676200359000 0.210135735295650
1.160321617525740 -0.263571764212763 0.046191578171353
0.697269440185246 -0.067900600608738 0.043003685005613
1.265550296177935 0.054699448879855 -0.173658176222230
1.219496152719864 -0.158970467429764 -0.151971791130671
0.814341462883057 -0.183902752791039 -0.204126253384743
1.276096197683461 -0.103537445477432 -0.042410939031947
1.308828617479487 0.007131906984684 0.042716491209298
0.922868542391515 -0.287576325033673 -0.023226366278066
0.747104307254927 0.242399410176424 0.257002042599091
0.840100029002176 -0.288476853378015 0.145698137993691
0.764461009434600 0.133102079113098 -0.175137639670788
1.308657471623629 -0.153776295081719 0.223928131613014
1.068089407042851 0.341670508089103 0.248671896744140
0.924589372126522 0.326362228089887 0.177333048355412
1.120721940444529 0.249710460987423 -0.123728777127289
1.106420313144412 0.279085405742633 -0.013655969350113
1.212960119815135 -0.161874606718957 -0.180402298297486
1.073903560767369 -0.256448727687396 -0.169878630655658
1.095686017635709 0.286319684006471 0.003485731038788
1.073978850006682 -0.297905719796658 0.027890165674285
0.684155489325564 -0.118873784880459 0.186435713791375
1.156159887060927 -0.229426530347073 -0.127750535674404
0.711919885674800 0.001882898015883 -0.077162508567331
1.344849140474408 -0.039499808656821 0.246285742566983
1.199028266616809 0.209858951210988 -0.063500446254145
0.693705130237017 -0.151219380493337 0.214671632636645
1.309266458698648 0.084841693268802 0.101774450556804
0.706911539325729 -0.132575254103519 0.100842576062362
0.705433244845958 0.052124542221682 -0.016650697199333
1.098099651147953 0.331435393682975 0.222515980354718
1.287452123521515 0.174107734136982 0.182902358389545
1.311455704132045 0.072892067075267 0.092083421371116
0.716356400944364 -0.093473679249531 -0.020100249876056
0.810424572442084 -0.213974574136573 -0.074724307490728
1.322662862207061 0.051612777969080 0.134285936665858
1.107947770423360 0.330085525857379 0.260452723243158
1.073345760390217 0.292087177887114 -0.007306341537568
0.977349341388668 0.339041478716415 0.210869892314664
0.691234824062964 -0.010665905708573 0.040918648664121
0.795816446519122 -0.217768960529499 -0.016985360243083
0.944236924466117 0.268671627166453 -0.141984189452679
0.830456303677870 -0.220833459187549 -0.115235544122886
1.322749985133160 -0.086825869870247 0.172860231200010
0.886838935377388 -0.311174874866071 0.157421686468685
1.047609678715708 0.266539866921563 -0.165081038994045
0.914279761370808 -0.271787876682485 -0.087866785594888
1.100636970961506 -0.253892161819487 -0.148740054145914
0.708896986435921 -0.068211305742454 -0.000961843470045
1.072322929912663 -0.322708852822537 0.164215025457730
0.739931972456897 -0.191771469632976 0.116384115091136
1.256331859945931 -0.067586730612541 -0.199610031991793
1.185054522281500 0.195104808108946 -0.171536823762675
1.226839413813483 -0.171375607165754 -0.096654519079204
0.746338439143506 -0.128484027987500 -0.092200541521986
1.317719947749932 0.077889772649943 0.130395064299936
0.958071526818203 0.308504278873384 0.059434832946830
1.142657715320917 -0.293662523308708 0.140437962227887
1.185240033666291 -0.237768739170301 0.000690319935503
0.899309418900220 0.330821279177784 0.252710300241922
1.259219522317111 -0.099878490842707 -0.122617559907045
0.700798691867674 0.161832060040332 0.208134875924599
0.713112053411648 0.011641386887972 -0.065437529544437
1.279513192506184 0.113069290685423 -0.001847901120843
1.198179788066264 -0.184254854949029 -0.156079866796964
1.290705475407324 -0.143315367494686 0.128635393882131
1.162396536335130 -0.271583014934206 0.078597563450945
1.342345043188817 0.066097121378139 0.250119237615552
0.832596105085027 0.276343261796611 0.123746702754239
1.326472603142026 0.086751353946143 0.187486100837318
0.992329243952829 -0.309301160683664 0.028538058741077
0.805320828538171 0.194662293750343 -0.138553248279604
1.278297848051440 0.186269900702261 0.177563201107796
1.016273912627909 -0.298262244934930 -0.017144187915094
0.777507625309383 0.252668161513280 0.191844502807372
0.963634191092050 -0.339343404357881 0.216747530685793
1.275445080723353 -0.035486399859104 -0.125727782761545
1.275883005964777 -0.021097515890596 -0.136553393369978
1.125505194023253 0.243337145230688 -0.147003981016618
1.281987304316781 -0.088935676387437 -0.034597680266337
1.179621668938802 -0.296835054222612 0.238829843782244
0.969035500555513 0.301663182653427 0.010729317460159
1.112249268986491 -0.255278694916170 -0.126439373027004
1.163641599561228 -0.223458597451260 -0.140406416457653
1.257213566563733 0.171460433584191 0.044007501755367
1.276531136348277 -0.064200473976621 -0.086541414735018
0.911734947820058 -0.262836883581401 -0.130372672570780
1.265474008527584 -0.147144493574629 0.002878445126784
1.156582547015853 0.247976981562657 -0.047247069232820
1.299111328397157 0.052072174251410 0.020798222412773
0.959124498334820 -0.301450183496345 0.018693143306754
0.778196742312968 0.190681924836290 -0.049079693185128
0.824464773154157 -0.219525968747592 -0.114685550809235
0.903189326678655 -0.269776294053945 -0.080087180900132
1.269331103669657 0.197651497411353 0.174589533038460
1.224589002370489 -0.234473465154316 0.130008927258176
0.965766296502230 0.287920002082480 -0.061931989542160
1.162364115890653 0.237394767117285 -0.080550888393884
0.805704610444551 0.199145381791859 -0.119328812762885
1.052443449000071 -0.262077522124307 -0.180918837985463
0.765186147061193 0.248461536580769 0.200831440500098
1.319959339691105 0.056504232312293 0.128714275222762
0.932925844378349 -0.312530187698253 0.099990418969996
1.290389629088192 0.128237452476426 0.083756345074900
0.728014002308574 0.096976122549340 -0.053946116501009
0.847120394597769 0.222131633363699 -0.152145452195415
0.666317237024009 0.018573160502342 0.168538390067126
0.910460466108013 0.295912692904417 0.032503065894944
1.176025049264239 0.239040733009053 -0.019711189403419
0.955479794095870 -0.341857407904358 0.216217086146405
1.267578601038232 -0.143111152410528 0.008792560812152
0.899162916123459 -0.320628520477790 0.183602858580658
0.682772695744330 -0.131819661652829 0.232205531476183
1.318564992424714 -0.128638392610118 0.230085206976839
1.057958618553721 -0.307450285136486 0.064028365837630
0.713349608038565 -0.106544211584613 0.032227335570231
1.280354259099254 -0.184487850113936 0.179946566926338
0.717658341963781 -0.015987575569313 -0.090052830848523
1.267737732621772 0.150275826149960 0.030977334721467
0.804968071346057 0.254296869072808 0.097908908080830
0.864161894213729 -0.262984217365972 -0.034722011534819
0.677598999779123 0.031242999839742 0.121406329447179
0.684332593174912 -0.059674729345208 0.100812415606548
0.800814457296792 0.282812549432600 0.233333623243135
0.973491238186168 0.316931299641881 0.096545860676448
0.914108498673767 0.281647578777945 -0.020237865316834
0.740323458333406 -0.072831068562709 -0.173690185839408
1.156692019891266 0.259703377932614 0.001754192020497
0.786511754561771 -0.256896271674561 0.177332061676941
1.290500299580172 -0.024370716874663 -0.054360968495504
1.219110431993750 0.178776750538431 -0.093961706986441
0.932402920169176 -0.292998075423649 -0.002524437342773
1.263326281778950 0.104108706626588 -0.101735503400443
1.334615564112439 -0.075059440733511 0.226385899771753
0.981699586125445 0.259804179176735 -0.216506394219902
1.266238590543191 0.018859423301974 -0.184099196910723
0.752309547656119 0.208187099048346 0.111183816388020
0.723773145522962 -0.187273700990084 0.169807618902730
1.257072845386338 0.168234645923253 0.033635977082992
1.069038247632223 -0.254871021970476 -0.198346358593854
0.903652210794985 0.315206028477746 0.149294427634725
1.111129780107014 -0.244458293711001 -0.183477155915360
1.267707781420193 -0.091761954818674 -0.096475588262069
0.864085910645166 0.278564574924643 0.036179768027203
1.343764492856207 0.046701104880640 0.235777250084559
0.740114151706112 -0.030272962981239 -0.201605973038453
1.273284159793342 0.047196368631332 -0.117425336550859
1.131606268298161 -0.297825012009915 0.132828067313986
0.701406963214678 0.074235384332675 0.039284128617029
0.964896818504002 0.305437935547464 0.025382953135337
0.788190418937309 0.158222659246093 -0.189588570883314
0.689349268353025 0.004991713265241 0.041367351693306
1.087076359739590 -0.269990330846954 -0.092066879162210
0.715215491969101 -0.125666186206632 0.052015073633265
0.824522491254836 -0.199415222870961 -0.199387068748526
0.840148125392760 0.255150611631575 0.010968353766151
0.669526645353181 -0.062984538752747 0.193435598791363
1.281313057638369 0.089299515572819 -0.026916767205211
0.867375727631768 0.228569065930608 -0.198679244346900
0.757786901290684 0.106948532482860 -0.193541248140256
0.748385965687086 -0.147388858191850 -0.055560764079392
0.754782451035587 0.160401861374095 -0.047056667952907
0.812872661500604 -0.223936777976068 -0.049581127643368
0.731092557329760 0.110895470204967 -0.058863718474796
1.245764437663437 0.153522383221229 -0.052676546563276
1.277041891987334 -0.072665162113544 -0.086730420498009
0.812514290089499 0.231433465352909 -0.018094036787044
1.207257298908712 0.182159825247802 -0.131391336743812
1.284207078925741 -0.012578391422435 -0.095877138646793
1.333832998812033 -0.030741945675897 0.181346982809563
0.937677251104817 -0.318417769714709 0.121214886708158
1.280252186939468 -0.014112626212062 -0.111699947751921
1.270723108436753 -0.007104233166868 -0.152987760466821
1.303894759177399 -0.008437732498735 0.024799974022716
1.067196773924191 0.289045301810032 -0.022758129244623
0.852108082118769 -0.267388737621101 0.025424104765829
0.962649641925154 -0.280066573207436 -0.105145043612282
0.960126173372683 -0.288319115656741 -0.040825999539343
0.713162868662883 0.002570337904910 -0.088511209416106
1.144699274044432 -0.249598315342421 -0.066510036719129
1.156529466095324 0.216138509046509 -0.179469968276369
0.834911782825521 -0.218086370148464 -0.148248193223879
0.735547030800389 -0.216789733908061 0.218597148508394
0.872363805422647 -0.260213231124111 -0.051870505227692
0.946727098308822 -0.256493687558634 -0.211891302416199
0.746423853095171 0.091374121968891 -0.166648380489444
1.070342515586772 -0.308166378719432 0.090461327793505
0.990028773549063 0.315687638277402 0.077698851853645
1.157639652622759 -0.217329736083526 -0.176298818936653
1.252764857150811 -0.106596996019001 -0.142721559117149
0.926118944753539 -0.311937407453193 0.099522262363163
1.023464051747611 -0.309658334170135 0.053936888016030
0.822868941730993 0.289295360827992 0.198264167439197
0.826356411067558 0.263096219646501 0.072208437773812
1.330818853947284 -0.016995471772433 0.161552906570986
0.681062186148303 -0.073011784080239 0.135713668120701
1.196405132275457 0.261849549705586 0.142234595208329
1.256836325117802 0.103514306111266 -0.122524688336081
0.743082043532194 0.122540494262440 -0.075669836699005
1.280483443982675 -0.143715815654760 0.068060803146874
0.722749530790154 0.027443576368797 -0.116640942260846
0.705308475376020 0.096368510086574 0.050714814998737
0.890424133807224 0.303483196127521 0.113145562418649
0.655070407061560 -0.021092569622312 0.228275647408823
1.331335667893373 -0.028160291584311 0.165562192122588
0.947660301510009 -0.293806884300410 -0.005133151571132
1.257455208880336 -0.140188593659496 -0.028944885169529
1.285010539545991 -0.082549175628453 -0.022226372957688
0.782199179820402 -0.168878563803996 -0.137071399342413
0.683520732569922 0.023868316762603 0.078511187832582
1.312042691204683 0.138086022208632 0.212675068840509
0.729063180806107 0.085044679439673 -0.086907352549947
1.064154537728461 0.307776366323618 0.071496421352616
0.878252057965647 -0.260252545845586 -0.059995949326095
0.748916119328651 -0.103151994951743 -0.168492935303223
1.305083517244814 0.032717738732690 0.027842599555752
0.673097048501175 -0.109866629166465 0.230324518878849
0.862948725629386 0.243468855028403 -0.126698003092642
0.971870193083564 -0.264072641107000 -0.183489868147977
1.301300571412782 0.114272297208648 0.118894226301807
1.187615937945673 -0.246569597945700 0.043208552096411
0.954398340545362 0.330383859991425 0.174101777833193
1.195178060257337 0.279797926047385 0.217265479055924
0.665653566817651 0.075632795137982 0.227160884779448
0.809450802806148 -0.276415661328921 0.179227892985018
1.293303086298053 -0.068132651664927 0.008050923078106
1.323405792568939 0.039999827368262 0.130055019059407
0.794610958410611 0.261750142154059 0.165290153593857
1.023846990557967 0.276287308488874 -0.119891731008876
1.320907598461603 -0.106866465908176 0.207411908583641
0.747991085296550 0.204049915779193 0.138406953089615
1.170685149634820 0.259223151179021 0.046339853115901
0.789307712544066 0.175665859645454 -0.137947410663099
0.865481059531527 -0.273525909221951 0.013955988505003
1.296564635420632 -0.182396586637964 0.251615454393572
1.060934613892641 -0.298390852449594 0.012142449957522
0.878460044071089 0.233760670309286 -0.199210700147416
0.797740292777092 0.229457737346312 0.025657042692434
0.871376475340554 -0.304545825593966 0.153778635914469
1.257669472502434 -0.049792545241630 -0.203634158216888
0.652686708527267 0.031433930179790 0.248186786844895
1.335649151780798 -0.091435108031416 0.242543807449774
1.280318217595223 0.094630082368639 -0.041410399534581
1.233270044681321 -0.210480750972270 0.071579134278868
1.029163119135686 0.287477854471021 -0.075620468124578
1.182084835563831 0.248239072292532 0.033336202612768
0.935167315045220 0.322591359546259 0.142112024245777
1.255448889461492 0.061590595893370 -0.210066119249254
0.736419663942507 -0.198783003063971 0.157046069325068
0.686921257567205 0.079653092783545 0.114797248707273
1.291258632105693 0.183284209256055 0.221232311938879
0.660952764766797 0.044307841498132 0.219936243961089
0.911561555418734 -0.254730175203313 -0.163267404265128
1.228247279525637 0.194033998365612 -0.017318658026086
1.272856381548072 -0.095915518450381 -0.066053929830401
1.164869871808946 0.206706181176002 -0.185480298554904
0.836979292801268 0.226581730955519 -0.111788699776431
0.967814937303871 0.268488272771191 -0.168438715470769
1.130289868215290 0.278245089340339 0.026354617376464
0.777226992823298 0.155830710458685 -0.155979930977140
1.222485551316186 0.239414406704222 0.141575754942177
1.269933715757408 0.042303706559674 -0.136137331630735
1.132235749377407 -0.315329807563369 0.221574438208650
0.889651365961696 0.292217034309662 0.060290555531317
1.340937187163370 -0.032466057497060 0.217040249471599
1.324822020968845 -0.003588976365890 0.121830590077149
1.276048056610311 0.095740089071841 -0.039901895897812
0.919381652045541 0.311669449037734 0.107402023093397
1.075638465072759 -0.323013565329022 0.163115371401234
0.664156872748539 0.093177214198995 0.259187918856364
0.908719992221081 0.257008903279181 -0.154666290746212
0.891179223613583 0.260858624397323 -0.100210177484302
1.346467700684847 -0.008704003368343 0.243779338248502
0.894322167236331 0.317825461735413 0.186277087570043
1.055732668582503 0.302388426708923 0.036749872547778
0.803519215024575 0.228207711954428 0.005344138707218
1.008519864942308 -0.292553907797679 -0.059806629849344
1.005332510868623 -0.266212404405248 -0.196208939140872
0.776293462799515 -0.189169818628602 -0.049816677475437
1.314086709275489 0.153115261720013 0.255789323343992
0.682936409760590 -0.024712232745210 0.092456572180193
1.276562297574994 -0.028415931027556 -0.123501283629568
0.714429231061371 -0.175544820503460 0.178317021590135
0.738782703220862 0.180440001948508 0.089196712417014
1.225981012319016 0.181102633236596 -0.060834990964729
1.145986219469679 0.260589673576985 -0.009478954791776
0.998842830862417 0.295861763475999 -0.029568727666264
0.821099665164992 0.292205089345198 0.219450289714408
0.658662896687287 -0.030099738124987 0.214882827940304
0.716137134459159 0.049486218388433 -0.065661530308921
1.014090368328336 0.299156626754728 -0.010990826122021
1.306981155581214 -0.082557139199240 0.089856033567976
1.295823056148860 -0.026875289511481 -0.031095699620469
1.261954368761148 0.185911262150136 0.097035847918448
0.866559753299379 -0.310716067550343 0.193004246649839
1.344650597474836 0.004656882411720 0.228181660223810
1.289936875300032 0.020455683301979 -0.056952746034804
1.301487474680008 -0.115776195312801 0.118280863224157
1.308655031544812 0.062909772916266 0.071654858191301
0.731182879923306 -0.074808735167743 -0.117891227542231
1.304248649067470 -0.055069299426958 0.042050938674182
1.336461920412104 -0.003760941224816 0.190131705402471
1.101632251401471 0.321555012368072 0.187225360583177
0.817467785158082 -0.245088246189775 0.023203041870875
1.027713087546042 -0.267640426009547 -0.160001858408654
1.179722434526665 -0.260752870107002 0.082016166393278
1.149868929328743 0.236358295908012 -0.116617631741586
0.972908361160350 0.291590648445581 -0.052913925824850
0.825935026831829 0.262672160587370 0.077393631219324
1.324548826438130 0.003975805533267 0.118759186907245
1.333735188693028 -0.060371861168964 0.209822480534499
1.327145627642219 0.062759939740083 0.163578693570461
1.022537077525207 0.347376918025498 0.258357712301654
1.063788063763117 0.287012530720823 -0.053109111470106
1.113320781777372 -0.303486529925620 0.131108821895882
1.246849020524101 0.155521273337267 -0.053599416703672
0.864353740603306 -0.260453960191931 -0.036783041501610
0.848204813511183 -0.246204475945631 -0.059687078482914
1.025775799540051 0.317946170964888 0.104455935154921
0.866149752159229 -0.232836645348814 -0.167281668036655
1.243241841797310 0.199853493033610 0.074029379966466
0.691398962949244 0.070314766806731 0.077767172277744
1.165936120661011 -0.264520506480227 0.058948391676565
1.175356029788576 0.205590798669085 -0.170959536117422
0.867755570969394 -0.270571263876672 0.003986137103825
0.995116183426753 -0.285830796114096 -0.084742419070983
0.973668428572429 0.291685671878757 -0.050325564951963
1.236453921490049 -0.212624822060887 0.105418707896012
0.722523507064990 0.089908887270878 -0.047868024037827
0.873236894927280 -0.322084810311191 0.248024111614817
1.316980248914176 -0.075975449459525 0.135366808347272
1.053800175783920 -0.288903504653891 -0.032248929413670
1.059188639503758 -0.284620528962554 -0.059557397944657
1.255878408494489 -0.190780006841902 0.086809148613324
0.967731781793768 -0.314934775513755 0.084324242594144
1.193499974347766 0.251668715533991 0.097023098237297
1.181208917687788 0.292133005605020 0.227094212129514
0.833199517042449 -0.288695017776104 0.168720404128537
0.953362872564238 -0.315080517002345 0.090312495537557
0.729786348765296 -0.166191768204177 0.093359892444630
1.154831008974857 0.216233709122872 -0.185647316419050
1.054937706606782 -0.262290948734052 -0.172846655001623
0.697045345919489 -0.144918880374548 0.178846258039653
0.840642025834790 -0.289884105305791 0.156726627381089
0.959267895701797 -0.318336691875977 0.098265314937616
1.096390950755110 -0.316280295920341 0.158988724176494
1.187797870821106 0.255586402566792 0.091697724216493
0.700910464240147 0.053635003201010 0.011654319873351
1.260061379533997 0.195490330666195 0.128186999736585
1.196181455187968 -0.279639543563142 0.217591095813916
1.045856695463066 0.293192081491389 -0.018707275802245
1.217395559986011 0.232446198998642 0.084843722175914
0.696133478220793 0.164386028521906 0.235254781331042
1.287100507506486 0.010762092580293 -0.076402891901953
0.778400083091503 -0.172353092683591 -0.109951085769516
1.323170253570027 -0.121245607614314 0.229172562846601
0.937837697975417 0.278771124591598 -0.086348927130678
1.059419585344728 0.260537899246587 -0.176232288506996
1.240479805319162 0.235041652915572 0.178295868941466
0.663936164076158 0.010795928159369 0.179392570146375
0.778160309796252 0.197742077619954 -0.021787880699401
0.893131073628189 0.314468366122104 0.170874695046348
0.816393186599988 -0.284814188572438 0.194695198835203
0.713477580625571 0.091074082385540 0.002478957587880
0.762462786994675 0.151761364573917 -0.105489348120793
1.231977561423311 0.180579926017400 -0.027067802184766
1.283368114302445 -0.073088908677973 -0.036324053297022
0.692473787261175 -0.064975871311331 0.063719458676445
1.128532290577803 -0.226789500978303 -0.215039511192842
1.093186639576977 -0.302010660846598 0.070689985243247
1.340808701054321 -0.024219410787853 0.210750369643144
1.239163724472000 0.244322610133035 0.215114620027493
1.285933536240629 -0.038041516348070 -0.067617605866377
0.774600876278604 0.172176189002960 -0.085316619591009
0.794485582578762 -0.275775408699305 0.220714622207935
0.691574500119358 0.129254234628088 0.164251997308100
1.097103902333788 0.314411378769415 0.147650641459029
1.324266448650191 0.121595828165963 0.245533628436995
1.064586450444730 0.275305148265230 -0.096786844495021
1.000283798797588 -0.306757917638149 0.033922417231627
1.082751881049900 0.256315375177539 -0.172534323914992
1.284810100615477 0.149056037418998 0.118754673998829
1.331113997026012 -0.003454846788891 0.150922960882831
0.683720860775837 -0.012950396935362 0.079271100191201
1.279065209974793 0.013929054287630 -0.108771187813208
0.710122076431694 -0.062747471502232 -0.035621704827479
1.049046592455646 0.303459889522144 0.025364227523004
0.684637325342873 0.110752741280059 0.172003346687001
0.674365320702489 0.061795801154880 0.157829423785294
0.728772682511613 0.176141535484322 0.114947056812505
0.740206849802669 0.084886977606251 -0.146420543231707
1.288253071197845 -0.131837657842962 0.090878396738808
0.819733695242462 0.234919813296480 -0.021696115059526
0.738163171032146 -0.098957068900469 -0.111387078932633
1.233023386747016 -0.126318220151753 -0.191728737082881
0.794772415622296 0.217942065764826 -0.007091611339664
0.947522286965471 0.291537284504094 -0.019207309383203
1.058649570524998 0.336449004961545 0.209748088432920
1.285124995997312 -0.041904595948736 -0.068918791233452
1.157735203973598 0.306815894377644 0.222477854129159
1.275015982846247 0.007476756449591 -0.134117021726201
0.777870668785260 0.139718802748588 -0.215211566150207
0.989976400470415 0.301740180420602 -0.008029303335730
1.250238409309977 0.208870292728785 0.126373605181044
1.150805658959993 0.237524717964687 -0.113492583520836
0.659898244197733 0.038024447579160 0.212052096811479
0.724367553337315 -0.021026464975106 -0.125340803758107
1.005295912676124 0.303006598882912 -0.004318627613807
1.327512127277825 0.026287860122422 0.143553569747848
0.820431164685671 -0.251947003093555 0.044062161692039
0.905408029095720 0.270419747497151 -0.078036158145817
1.205022992298707 0.193214273877277 -0.098253265125943
0.754679792909862 0.127919529900584 -0.128785193256367
0.965594669584406 -0.318059201683054 0.096662480776398
0.926574077762801 0.313115415847054 0.115709146134896
0.757392614860558 0.158145746387860 -0.065914812958553
1.179121366626788 -0.268819045070276 0.125605636526626
1.317607022746597 0.055315244079544 0.097101501354664
0.900974520968764 0.297337359265900 0.063870977698673
1.240224878918037 -0.177090992648490 -0.017602244927756
0.733452873703321 0.042775481098778 -0.157154136792778
0.699516265029382 0.161303067193637 0.206357861508740
1.167060677150092 0.242516911781518 -0.039967826255709
0.687676371416846 -0.123732074858609 0.192316748995365
0.736884183899277 -0.119419667613246 -0.068895509221806
0.802502718876640 -0.208094447869829 -0.072255653741453
0.735655037720394 -0.054474537181833 -0.161327420448367
1.285206705797968 0.031855539004558 -0.085884739539332
1.289076981430495 0.058406856337320 -0.045701266183478
0.725950719976951 -0.003898803114204 -0.139099591735985
0.753816629465254 -0.118405574877425 -0.150862520928221
0.974866824509920 -0.334908100603420 0.181791325992586
0.817362655215117 -0.209262497930069 -0.126169273359975
0.805558847656032 0.203716947326925 -0.112992227846230
1.333057597319180 -0.073213161601871 0.211985471377405
1.009200361024218 0.293848324662184 -0.025662354056140
0.785110807604483 -0.156846529817143 -0.193603460247242
1.260358588345288 0.147981942118450 -0.008707946458627
1.314727571606034 0.057874641746670 0.108436530331725
1.150689503860497 -0.290560231706717 0.148396273451374
1.151861668755376 -0.210206089966421 -0.214066137361106
0.767566476604026 -0.171129812016065 -0.065574580004977
0.874628809932585 0.242414332144732 -0.153417686154030
1.136578814362301 0.245392262101630 -0.092823194763056
1.240077144237409 0.237018446958064 0.187547906285020
1.167369438193710 -0.292675717149488 0.181846145943556
0.821346740246001 0.297401718749780 0.244366547750585
1.185352353820104 0.230752393905936 -0.021534106256749
1.320670286892885 0.025605753084118 0.117851674110312
0.881661282389553 -0.287043259506725 0.047759903533612
0.798175419570424 0.194885462444558 -0.102853950682687
0.715010779511683 -0.117700226856717 0.035201093952234
1.074798621874281 0.319466279545898 0.148650354854558
1.076724154196574 0.323110893100245 0.169697156363197
1.200463052443116 0.186208342389558 -0.144363007868271
1.196102303502929 0.208457503404682 -0.084509379358853
0.953864958789310 0.319993031201743 0.114272576464103
0.739163199215070 0.019685424093791 -0.205103439749576
0.754490298526947 -0.183520574015129 0.033930304081701
1.212564636690210 -0.203718104556779 -0.044337032059377
1.001890023760030 -0.268309359833332 -0.167610013876118
0.658330845473394 0.001454485231588 0.215795933768241
0.663725342382802 0.004671428598698 0.174921459648609
0.743103104324939 -0.136141231858983 -0.054975418822316
0.929816188324662 0.273711227431019 -0.102655571216758
1.255731951737224 0.056939365981071 -0.201462851521802
1.099724557098702 0.310976321481631 0.133992513864123
0.854300889298531 0.298194748754963 0.158653833662849
0.736259575420717 -0.006938037350190 -0.204205803528212
0.801730707476281 0.242070609096673 0.057375252966183
1.032908965999673 0.339375595530956 0.207440218493549
0.916818414532624 -0.280259177647324 -0.039138613398956
1.335788643856616 -0.020924001475007 0.194959822758239
1.121258419354529 0.277564638420420 0.020730470568275
1.327693078401433 -0.033394270095514 0.157160890711082
1.138224604114932 -0.286863585712736 0.088410075874269
1.258406939814372 -0.086325254341997 -0.159823874776482
0.669580398801764 -0.019892102375210 0.161593909707684
0.813244145323487 0.247906725234929 0.042184338378333
1.057222306963221 0.287054508627348 -0.045028866796163
0.718321778893612 -0.075040497291294 -0.072520821600767
1.269344198308920 -0.001170604716934 -0.179681702352412
1.341859869213191 -0.021641270445645 0.210659592896455
1.321656292837109 -0.006337563103846 0.111318646448599
0.958470793164303 -0.299588557193675 -0.001141720670412
1.334500623934112 0.040488931136075 0.191581673755789
1.290378202440346 -0.105693315704483 0.039351941775272
1.323514002463646 -0.116628031812849 0.232727370943403
1.320682205031176 0.033021725543560 0.112102855293145
0.724378678737503 -0.110080459345410 -0.034557052076464
1.163705902055719 -0.269757963528264 0.077161937341908
0.815976803505613 -0.213443199706758 -0.092852131927849
1.276543473632508 -0.067220527393323 -0.092205843579343
0.906805584803887 0.256585555781839 -0.157510190211603
0.928769758598565 0.256533981157354 -0.191786807195129
0.685460297970933 -0.063880253347001 0.101619858659946
1.067458485644444 0.275253832707082 -0.102636624150578
1.151708947942956 -0.310549726884823 0.229960311569909
0.785616796782522 0.216023662138225 0.015412015552675
1.057840276636333 0.271638541437498 -0.137967496332143
0.708787658005393 -0.041196766976009 -0.043364980467187
1.149653843269984 0.255257449657712 -0.016310849602371
0.843856391119812 -0.304449679795697 0.221389100941050
1.058934748660036 0.291617211780775 -0.006898157462281
0.725807635369922 -0.032785888177144 -0.132736643998681
1.032408326065706 -0.333195522121503 0.180668600098570
1.028389766042807 -0.317376871348554 0.090393142521933
0.772198578629860 -0.193262045480904 -0.015549802821124
0.752527225560838 0.238198710431620 0.228698731638459
0.853798937352870 -0.278111539447323 0.082625760459747
1.295138543710708 -0.102970052076329 0.063360093288403
1.192872384799332 -0.215337469899679 -0.061359388518598
1.280928177949702 -0.102157688192560 -0.008922725856582
